0.06475 0.019595 0.019595 2 4 6
0.064568 0.019398 0.019398 2 4 6
0.064383 0.019202 0.019202 2 4 6
0.064196 0.019006 0.019006 2 4 6
0.064007 0.018811 0.018811 2 4 6
0.063815 0.018616 0.018616 2 4 6
0.063621 0.018422 0.018422 2 4 6
0.063425 0.018228 0.018228 2 4 6
0.063227 0.018034 0.018034 2 4 6
0.063027 0.017841 0.017841 2 4 6
0.062825 0.017648 0.017648 2 4 6
0.06262 0.017456 0.017456 2 4 6
0.062414 0.017264 0.017264 2 4 6
0.062206 0.017073 0.017073 2 4 6
0.061997 0.016882 0.016882 2 4 6
0.061785 0.016692 0.016692 2 4 6
0.061572 0.016503 0.016503 2 4 6
0.061357 0.016314 0.016314 2 4 6
0.061141 0.016126 0.016126 2 4 6
0.060923 0.015938 0.015938 2 4 6
0.060703 0.015751 0.015751 2 4 6
0.060483 0.015565 0.015565 2 4 6
0.06026 0.01538 0.01538 2 4 6
0.060037 0.015195 0.015195 2 4 6
0.059812 0.01501 0.01501 2 4 6
0.059586 0.014827 0.014827 2 4 6
0.059359 0.014644 0.014644 2 4 6
0.059131 0.014462 0.014462 2 4 6
0.058902 0.01428 0.01428 2 4 6
0.058672 0.0141 0.0141 2 4 6
0.058441 0.01392 0.01392 2 4 6
0.058209 0.01374 0.01374 2 4 6
0.057976 0.013562 0.013562 2 4 6
0.057742 0.013384 0.013384 2 4 6
0.057508 0.013208 0.013208 2 4 6
0.057273 0.013031 0.013031 2 4 6
0.057037 0.012856 0.012856 2 4 6
0.056801 0.012682 0.012682 2 4 6
0.056564 0.012508 0.012508 2 4 6
0.056327 0.012335 0.012335 2 4 6
0.056089 0.012162 0.012162 2 4 6
0.055851 0.011991 0.011991 2 4 6
0.055613 0.01182 0.01182 2 4 6
0.055374 0.011651 0.011651 2 4 6
0.055135 0.011482 0.011482 2 4 6
0.054896 0.011314 0.011314 2 4 6
0.054656 0.011146 0.011146 2 4 6
0.054417 0.010979 0.010979 2 4 6
0.054177 0.010814 0.010814 2 4 6
0.053937 0.010649 0.010649 2 4 6
0.053698 0.010485 0.010485 2 4 6
0.053458 0.010321 0.010321 2 4 6
0.053218 0.010159 0.010159 2 4 6
0.052979 0.0099969 0.0099969 2 4 6
0.052739 0.009836 0.009836 2 4 6
0.0525 0.0096758 0.0096758 2 4 6
0.052261 0.0095165 0.0095165 2 4 6
0.052022 0.0093579 0.0093579 2 4 6
0.051784 0.0092001 0.0092001 2 4 6
0.051545 0.0090431 0.0090431 2 4 6
0.051307 0.008887 0.008887 2 4 6
0.05107 0.0087316 0.0087316 2 4 6
0.050833 0.0085769 0.0085769 2 4 6
0.050596 0.0084231 0.0084231 2 4 6
0.05036 0.0082701 0.0082701 2 4 6
0.050124 0.0081178 0.0081178 2 4 6
0.049888 0.0079663 0.0079663 2 4 6
0.049654 0.0078156 0.0078156 2 4 6
0.049419 0.0076656 0.0076656 2 4 6
0.049186 0.0075164 0.0075164 2 4 6
0.048953 0.007368 0.007368 2 4 6
0.04872 0.0072203 0.0072203 2 4 6
0.048489 0.0070734 0.0070734 2 4 6
0.048258 0.0069273 0.0069273 2 4 6
0.048027 0.0067819 0.0067819 2 4 6
0.047798 0.0066373 0.0066373 2 4 6
0.047569 0.0064934 0.0064934 2 4 6
0.047341 0.0063503 0.0063503 2 4 6
0.047114 0.0062079 0.0062079 2 4 6
0.046888 0.0060663 0.0060663 2 4 6
0.046662 0.0059254 0.0059254 2 4 6
0.046438 0.0057853 0.0057853 2 4 6
0.046214 0.005646 0.005646 2 4 6
0.045991 0.0055074 0.0055074 2 4 6
0.04577 0.0053695 0.0053695 2 4 6
0.045549 0.0052324 0.0052324 2 4 6
0.045329 0.0050961 0.0050961 2 4 6
0.045111 0.0049606 0.0049606 2 4 6
0.044893 0.0048258 0.0048258 2 4 6
0.044677 0.0046919 0.0046919 2 4 6
0.044461 0.0045587 0.0045587 2 4 6
0.044247 0.0044263 0.0044263 2 4 6
0.044034 0.0042947 0.0042947 2 4 6
0.043823 0.004164 0.004164 2 4 6
0.043613 0.0040341 0.0040341 2 4 6
0.043404 0.0039051 0.0039051 2 4 6
0.043196 0.0037769 0.0037769 2 4 6
0.04299 0.0036496 0.0036496 2 4 6
0.042785 0.0035233 0.0035233 2 4 6
0.042582 0.0033979 0.0033979 2 4 6
0.042381 0.0032736 0.0032736 2 4 6
0.042181 0.0031502 0.0031502 2 4 6
0.041983 0.0030279 0.0030279 2 4 6
0.041787 0.0029068 0.0029068 2 4 6
0.041593 0.0027868 0.0027868 2 4 6
0.041401 0.002668 0.002668 2 4 6
0.041211 0.0025505 0.0025505 2 4 6
0.041024 0.0024344 0.0024344 2 4 6
0.040839 0.0023198 0.0023198 2 4 6
0.040656 0.0022067 0.0022067 2 4 6
0.040477 0.0020952 0.0020952 2 4 6
0.0403 0.0019855 0.0019855 2 4 6
0.040127 0.0018777 0.0018777 2 4 6
0.039957 0.0017718 0.0017718 2 4 6
0.03979 0.0016681 0.0016681 2 4 6
0.039627 0.0015666 0.0015666 2 4 6
0.039469 0.0014675 0.0014675 2 4 6
0.039314 0.001371 0.001371 2 4 6
0.039164 0.0012771 0.0012771 2 4 6
0.039019 0.0011861 0.0011861 2 4 6
0.038878 0.0010979 0.0010979 2 4 6
0.038743 0.0010128 0.0010128 2 4 6
0.038612 0.00093066 0.00093066 2 4 6
0.038487 0.00085166 0.00085166 2 4 6
0.038367 0.00077577 0.00077577 2 4 6
0.038252 0.00070295 0.00070295 2 4 6
0.038142 0.00063316 0.00063316 2 4 6
0.038037 0.00056631 0.00056631 2 4 6
0.037936 0.00050228 0.00050228 2 4 6
0.03784 0.00044094 0.00044094 2 4 6
0.037748 0.00038213 0.00038213 2 4 6
0.03766 0.00032568 0.00032568 2 4 6
0.037576 0.0002714 0.0002714 2 4 6
0.037495 0.0002191 0.0002191 2 4 6
0.037417 0.0001686 0.0001686 2 4 6
0.037341 0.0001197 0.0001197 2 4 6
0.037269 7.2201e-05 7.2201e-05 2 4 6
0.037198 2.5916e-05 2.5916e-05 2 4 6
0.037129 -1.9341e-05 -1.9341e-05 2 4 6
Inf Inf Inf Inf Inf Inf
0.047328 0.055 0.055 2 5 6
0.047325 0.055003 0.055003 2 5 6
0.04732 0.055007 0.055007 2 5 6
0.047313 0.055013 0.055013 2 5 6
0.047302 0.055022 0.055022 2 5 6
0.047286 0.055036 0.055036 2 5 6
0.047262 0.055057 0.055057 2 5 6
0.047225 0.055088 0.055088 2 5 6
0.047171 0.055135 0.055135 2 5 6
0.047089 0.055205 0.055205 2 5 6
0.046966 0.055311 0.055311 2 5 6
0.046806 0.055448 0.055448 2 5 6
0.046646 0.055584 0.055584 2 5 6
0.046487 0.055721 0.055721 2 5 6
0.046327 0.055857 0.055857 2 5 6
0.046167 0.055993 0.055993 2 5 6
0.046008 0.056128 0.056128 2 5 6
0.045848 0.056264 0.056264 2 5 6
0.045689 0.056399 0.056399 2 5 6
0.04553 0.056533 0.056533 2 5 6
0.045371 0.056667 0.056667 2 5 6
0.045211 0.056801 0.056801 2 5 6
0.045052 0.056934 0.056934 2 5 6
0.044894 0.057067 0.057067 2 5 6
0.044735 0.057199 0.057199 2 5 6
0.044576 0.05733 0.05733 2 5 6
0.044418 0.057461 0.057461 2 5 6
0.044259 0.057592 0.057592 2 5 6
0.044101 0.057721 0.057721 2 5 6
0.043943 0.05785 0.05785 2 5 6
0.043785 0.057978 0.057978 2 5 6
0.043627 0.058105 0.058105 2 5 6
0.043469 0.058232 0.058232 2 5 6
0.043312 0.058357 0.058357 2 5 6
0.043154 0.058482 0.058482 2 5 6
0.042997 0.058605 0.058605 2 5 6
0.04284 0.058728 0.058728 2 5 6
0.042684 0.05885 0.05885 2 5 6
0.042527 0.05897 0.05897 2 5 6
0.042371 0.059089 0.059089 2 5 6
0.042214 0.059208 0.059208 2 5 6
0.042058 0.059325 0.059325 2 5 6
0.041903 0.05944 0.05944 2 5 6
0.041747 0.059555 0.059555 2 5 6
0.041592 0.059668 0.059668 2 5 6
0.041436 0.059779 0.059779 2 5 6
0.041281 0.059889 0.059889 2 5 6
0.041127 0.059998 0.059998 2 5 6
0.040972 0.060105 0.060105 2 5 6
0.040818 0.060211 0.060211 2 5 6
0.040664 0.060314 0.060314 2 5 6
0.040511 0.060416 0.060416 2 5 6
0.040357 0.060516 0.060516 2 5 6
0.040204 0.060615 0.060615 2 5 6
0.040051 0.060711 0.060711 2 5 6
0.039899 0.060806 0.060806 2 5 6
0.039746 0.060898 0.060898 2 5 6
0.039594 0.060988 0.060988 2 5 6
0.039443 0.061076 0.061076 2 5 6
0.039292 0.061162 0.061162 2 5 6
0.039141 0.061246 0.061246 2 5 6
0.03899 0.061327 0.061327 2 5 6
0.03884 0.061405 0.061405 2 5 6
0.03869 0.061482 0.061482 2 5 6
0.03854 0.061555 0.061555 2 5 6
0.038391 0.061626 0.061626 2 5 6
0.038242 0.061693 0.061693 2 5 6
0.038094 0.061758 0.061758 2 5 6
0.037946 0.06182 0.06182 2 5 6
0.037799 0.061879 0.061879 2 5 6
0.037652 0.061935 0.061935 2 5 6
0.037506 0.061987 0.061987 2 5 6
0.03736 0.062036 0.062036 2 5 6
0.037214 0.062082 0.062082 2 5 6
0.037069 0.062124 0.062124 2 5 6
0.036925 0.062162 0.062162 2 5 6
0.036782 0.062196 0.062196 2 5 6
0.036639 0.062226 0.062226 2 5 6
0.036496 0.062252 0.062252 2 5 6
0.036355 0.062274 0.062274 2 5 6
0.036214 0.062291 0.062291 2 5 6
0.036074 0.062304 0.062304 2 5 6
0.035935 0.062311 0.062311 2 5 6
0.035797 0.062315 0.062315 2 5 6
0.03566 0.062312 0.062312 2 5 6
0.035523 0.062305 0.062305 2 5 6
0.035389 0.062293 0.062293 2 5 6
0.035255 0.062274 0.062274 2 5 6
0.035122 0.06225 0.06225 2 5 6
0.034991 0.06222 0.06222 2 5 6
0.034862 0.062184 0.062184 2 5 6
0.034734 0.062141 0.062141 2 5 6
0.034607 0.062092 0.062092 2 5 6
0.034483 0.062037 0.062037 2 5 6
0.034361 0.061974 0.061974 2 5 6
0.034241 0.061905 0.061905 2 5 6
0.034124 0.061829 0.061829 2 5 6
0.034009 0.061745 0.061745 2 5 6
0.033897 0.061654 0.061654 2 5 6
0.033788 0.061557 0.061557 2 5 6
0.033682 0.061451 0.061451 2 5 6
0.033579 0.061339 0.061339 2 5 6
0.03348 0.061221 0.061221 2 5 6
0.033385 0.061095 0.061095 2 5 6
0.033294 0.060963 0.060963 2 5 6
0.033207 0.060824 0.060824 2 5 6
0.033125 0.06068 0.06068 2 5 6
0.033046 0.06053 0.06053 2 5 6
0.032973 0.060375 0.060375 2 5 6
0.032904 0.060216 0.060216 2 5 6
0.032839 0.060052 0.060052 2 5 6
0.032779 0.059885 0.059885 2 5 6
0.032724 0.059715 0.059715 2 5 6
0.032673 0.059542 0.059542 2 5 6
0.032627 0.059366 0.059366 2 5 6
0.032584 0.059189 0.059189 2 5 6
0.032546 0.05901 0.05901 2 5 6
0.032512 0.058831 0.058831 2 5 6
0.032482 0.05865 0.05865 2 5 6
0.032455 0.05847 0.05847 2 5 6
0.032432 0.058289 0.058289 2 5 6
0.032412 0.058108 0.058108 2 5 6
0.032396 0.057928 0.057928 2 5 6
0.032382 0.057749 0.057749 2 5 6
0.032371 0.05757 0.05757 2 5 6
0.032363 0.057393 0.057393 2 5 6
0.032357 0.057216 0.057216 2 5 6
0.032353 0.057041 0.057041 2 5 6
0.032351 0.056867 0.056867 2 5 6
0.032351 0.056695 0.056695 2 5 6
0.032353 0.056525 0.056525 2 5 6
0.032357 0.056356 0.056356 2 5 6
0.032362 0.056189 0.056189 2 5 6
0.032368 0.056024 0.056024 2 5 6
0.032375 0.05586 0.05586 2 5 6
0.032383 0.055699 0.055699 2 5 6
0.032392 0.05554 0.05554 2 5 6
0.032402 0.055383 0.055383 2 5 6
0.032412 0.055228 0.055228 2 5 6
0.032423 0.055075 0.055075 2 5 6
0.032434 0.054925 0.054925 2 5 6
0.032445 0.054776 0.054776 2 5 6
0.032456 0.05463 0.05463 2 5 6
0.032467 0.054487 0.054487 2 5 6
0.032478 0.054346 0.054346 2 5 6
0.032489 0.054207 0.054207 2 5 6
0.032499 0.054072 0.054072 2 5 6
0.032509 0.053938 0.053938 2 5 6
0.032519 0.053807 0.053807 2 5 6
0.032527 0.053679 0.053679 2 5 6
0.032535 0.053554 0.053554 2 5 6
0.032543 0.053431 0.053431 2 5 6
0.032549 0.053311 0.053311 2 5 6
0.032555 0.053195 0.053195 2 5 6
0.032559 0.053081 0.053081 2 5 6
0.032563 0.052969 0.052969 2 5 6
0.032565 0.052861 0.052861 2 5 6
0.032567 0.052756 0.052756 2 5 6
0.032567 0.052653 0.052653 2 5 6
0.032566 0.052554 0.052554 2 5 6
0.032565 0.052458 0.052458 2 5 6
0.032562 0.052365 0.052365 2 5 6
0.032558 0.052274 0.052274 2 5 6
0.032552 0.052187 0.052187 2 5 6
0.032546 0.052103 0.052103 2 5 6
0.032539 0.052022 0.052022 2 5 6
0.03253 0.051944 0.051944 2 5 6
0.032521 0.051869 0.051869 2 5 6
0.03251 0.051797 0.051797 2 5 6
0.032498 0.051728 0.051728 2 5 6
0.032486 0.051662 0.051662 2 5 6
0.032473 0.051599 0.051599 2 5 6
0.032458 0.051538 0.051538 2 5 6
0.032443 0.051481 0.051481 2 5 6
0.032428 0.051426 0.051426 2 5 6
0.032411 0.051374 0.051374 2 5 6
0.032394 0.051325 0.051325 2 5 6
0.032376 0.051278 0.051278 2 5 6
0.032358 0.051234 0.051234 2 5 6
0.032339 0.051193 0.051193 2 5 6
0.03232 0.051154 0.051154 2 5 6
0.032301 0.051117 0.051117 2 5 6
0.032281 0.051083 0.051083 2 5 6
0.032261 0.051051 0.051051 2 5 6
0.032241 0.051021 0.051021 2 5 6
0.03222 0.050993 0.050993 2 5 6
0.0322 0.050968 0.050968 2 5 6
0.032179 0.050944 0.050944 2 5 6
0.032159 0.050922 0.050922 2 5 6
0.032138 0.050902 0.050902 2 5 6
0.032118 0.050884 0.050884 2 5 6
0.032098 0.050868 0.050868 2 5 6
0.032078 0.050853 0.050853 2 5 6
0.032058 0.050839 0.050839 2 5 6
0.032039 0.050827 0.050827 2 5 6
0.03202 0.050817 0.050817 2 5 6
0.032001 0.050807 0.050807 2 5 6
0.031983 0.050799 0.050799 2 5 6
0.031965 0.050792 0.050792 2 5 6
0.031948 0.050786 0.050786 2 5 6
0.031931 0.050782 0.050782 2 5 6
0.031914 0.050777 0.050777 2 5 6
0.031898 0.050774 0.050774 2 5 6
0.031883 0.050772 0.050772 2 5 6
0.031868 0.05077 0.05077 2 5 6
0.031854 0.050768 0.050768 2 5 6
0.03184 0.050768 0.050768 2 5 6
0.031827 0.050767 0.050767 2 5 6
0.031814 0.050767 0.050767 2 5 6
0.031802 0.050768 0.050768 2 5 6
0.031791 0.050768 0.050768 2 5 6
0.03178 0.050769 0.050769 2 5 6
0.03177 0.05077 0.05077 2 5 6
0.031761 0.050771 0.050771 2 5 6
0.031752 0.050772 0.050772 2 5 6
0.031744 0.050773 0.050773 2 5 6
0.031736 0.050774 0.050774 2 5 6
0.031729 0.050775 0.050775 2 5 6
0.031723 0.050775 0.050775 2 5 6
0.031717 0.050775 0.050775 2 5 6
0.031711 0.050775 0.050775 2 5 6
0.031707 0.050775 0.050775 2 5 6
0.031702 0.050774 0.050774 2 5 6
0.031699 0.050773 0.050773 2 5 6
0.031696 0.050772 0.050772 2 5 6
0.031693 0.05077 0.05077 2 5 6
0.031691 0.050767 0.050767 2 5 6
0.03169 0.050764 0.050764 2 5 6
0.031689 0.050761 0.050761 2 5 6
0.031688 0.050757 0.050757 2 5 6
0.031688 0.050752 0.050752 2 5 6
0.031688 0.050746 0.050746 2 5 6
0.031689 0.050741 0.050741 2 5 6
0.03169 0.050734 0.050734 2 5 6
0.031692 0.050727 0.050727 2 5 6
0.031694 0.050719 0.050719 2 5 6
0.031696 0.05071 0.05071 2 5 6
0.031699 0.050701 0.050701 2 5 6
0.031702 0.050691 0.050691 2 5 6
0.031706 0.05068 0.05068 2 5 6
0.03171 0.050669 0.050669 2 5 6
0.031714 0.050656 0.050656 2 5 6
0.031718 0.050643 0.050643 2 5 6
0.031723 0.05063 0.05063 2 5 6
0.031728 0.050615 0.050615 2 5 6
0.031734 0.050599 0.050599 2 5 6
0.03174 0.050583 0.050583 2 5 6
0.031746 0.050566 0.050566 2 5 6
0.031752 0.050548 0.050548 2 5 6
0.031759 0.050529 0.050529 2 5 6
0.031765 0.05051 0.05051 2 5 6
0.031772 0.050489 0.050489 2 5 6
0.03178 0.050468 0.050468 2 5 6
0.031787 0.050445 0.050445 2 5 6
0.031795 0.050422 0.050422 2 5 6
0.031803 0.050397 0.050397 2 5 6
0.031812 0.050372 0.050372 2 5 6
0.03182 0.050346 0.050346 2 5 6
0.031829 0.050318 0.050318 2 5 6
0.031838 0.050289 0.050289 2 5 6
0.031848 0.05026 0.05026 2 5 6
0.031857 0.050229 0.050229 2 5 6
0.031867 0.050196 0.050196 2 5 6
0.031877 0.050163 0.050163 2 5 6
0.031887 0.050128 0.050128 2 5 6
0.031898 0.050092 0.050092 2 5 6
0.031909 0.050054 0.050054 2 5 6
0.03192 0.050015 0.050015 2 5 6
0.031932 0.049974 0.049974 2 5 6
0.031943 0.049932 0.049932 2 5 6
0.031956 0.049888 0.049888 2 5 6
0.031968 0.049843 0.049843 2 5 6
0.031981 0.049795 0.049795 2 5 6
0.031994 0.049746 0.049746 2 5 6
0.032008 0.049694 0.049694 2 5 6
0.032021 0.049641 0.049641 2 5 6
0.032036 0.049585 0.049585 2 5 6
0.03205 0.049528 0.049528 2 5 6
0.032065 0.049468 0.049468 2 5 6
0.032081 0.049405 0.049405 2 5 6
0.032097 0.04934 0.04934 2 5 6
0.032114 0.049272 0.049272 2 5 6
0.032131 0.049202 0.049202 2 5 6
0.032148 0.049129 0.049129 2 5 6
0.032167 0.049053 0.049053 2 5 6
0.032185 0.048974 0.048974 2 5 6
0.032205 0.048891 0.048891 2 5 6
0.032225 0.048806 0.048806 2 5 6
0.032245 0.048716 0.048716 2 5 6
0.032267 0.048624 0.048624 2 5 6
0.032289 0.048528 0.048528 2 5 6
0.032311 0.048428 0.048428 2 5 6
0.032335 0.048324 0.048324 2 5 6
0.032359 0.048217 0.048217 2 5 6
0.032385 0.048105 0.048105 2 5 6
0.032411 0.047989 0.047989 2 5 6
0.032438 0.047869 0.047869 2 5 6
0.032465 0.047744 0.047744 2 5 6
0.032494 0.047615 0.047615 2 5 6
0.032524 0.047482 0.047482 2 5 6
0.032555 0.047344 0.047344 2 5 6
0.032586 0.047201 0.047201 2 5 6
0.032619 0.047054 0.047054 2 5 6
0.032653 0.046902 0.046902 2 5 6
0.032689 0.046745 0.046745 2 5 6
0.032725 0.046583 0.046583 2 5 6
0.032762 0.046416 0.046416 2 5 6
0.032801 0.046244 0.046244 2 5 6
0.032841 0.046067 0.046067 2 5 6
0.032883 0.045886 0.045886 2 5 6
0.032926 0.045699 0.045699 2 5 6
0.03297 0.045508 0.045508 2 5 6
0.033016 0.045312 0.045312 2 5 6
0.033063 0.045111 0.045111 2 5 6
0.033112 0.044905 0.044905 2 5 6
0.033162 0.044694 0.044694 2 5 6
0.033214 0.04448 0.04448 2 5 6
0.033268 0.04426 0.04426 2 5 6
0.033323 0.044036 0.044036 2 5 6
0.033381 0.043808 0.043808 2 5 6
0.03344 0.043576 0.043576 2 5 6
0.033501 0.04334 0.04334 2 5 6
0.033564 0.0431 0.0431 2 5 6
0.033629 0.042857 0.042857 2 5 6
0.033697 0.04261 0.04261 2 5 6
0.033767 0.04236 0.04236 2 5 6
0.033839 0.042107 0.042107 2 5 6
0.033913 0.041852 0.041852 2 5 6
0.03399 0.041593 0.041593 2 5 6
0.03407 0.041333 0.041333 2 5 6
0.034152 0.04107 0.04107 2 5 6
0.034237 0.040806 0.040806 2 5 6
0.034325 0.040541 0.040541 2 5 6
0.034416 0.040274 0.040274 2 5 6
0.03451 0.040006 0.040006 2 5 6
0.034607 0.039738 0.039738 2 5 6
0.034707 0.039469 0.039469 2 5 6
0.034811 0.039201 0.039201 2 5 6
0.034917 0.038933 0.038933 2 5 6
0.035028 0.038665 0.038665 2 5 6
0.035141 0.038399 0.038399 2 5 6
0.035258 0.038133 0.038133 2 5 6
0.035379 0.037869 0.037869 2 5 6
0.035503 0.037607 0.037607 2 5 6
0.035631 0.037347 0.037347 2 5 6
0.035762 0.037089 0.037089 2 5 6
0.035897 0.036834 0.036834 2 5 6
0.036035 0.036581 0.036581 2 5 6
0.036177 0.036331 0.036331 2 5 6
0.036322 0.036084 0.036084 2 5 6
0.036471 0.035841 0.035841 2 5 6
0.036623 0.035601 0.035601 2 5 6
0.036778 0.035364 0.035364 2 5 6
0.036937 0.03513 0.03513 2 5 6
0.037099 0.034901 0.034901 2 5 6
0.037263 0.034675 0.034675 2 5 6
0.037431 0.034452 0.034452 2 5 6
0.037602 0.034234 0.034234 2 5 6
0.037775 0.034019 0.034019 2 5 6
0.037951 0.033808 0.033808 2 5 6
0.03813 0.033601 0.033601 2 5 6
0.038312 0.033398 0.033398 2 5 6
0.038495 0.033199 0.033199 2 5 6
0.038681 0.033003 0.033003 2 5 6
0.038869 0.032811 0.032811 2 5 6
0.039059 0.032623 0.032623 2 5 6
0.039252 0.032438 0.032438 2 5 6
0.039446 0.032257 0.032257 2 5 6
0.039641 0.03208 0.03208 2 5 6
0.039838 0.031906 0.031906 2 5 6
0.040037 0.031735 0.031735 2 5 6
0.040238 0.031568 0.031568 2 5 6
0.040439 0.031405 0.031405 2 5 6
0.040642 0.031244 0.031244 2 5 6
0.040846 0.031087 0.031087 2 5 6
0.041051 0.030933 0.030933 2 5 6
0.041257 0.030781 0.030781 2 5 6
0.041463 0.030633 0.030633 2 5 6
0.041671 0.030488 0.030488 2 5 6
0.041879 0.030346 0.030346 2 5 6
0.042087 0.030207 0.030207 2 5 6
0.042296 0.03007 0.03007 2 5 6
0.042506 0.029936 0.029936 2 5 6
0.042715 0.029805 0.029805 2 5 6
0.042925 0.029676 0.029676 2 5 6
0.043135 0.02955 0.02955 2 5 6
0.043345 0.029426 0.029426 2 5 6
0.043555 0.029305 0.029305 2 5 6
0.043765 0.029187 0.029187 2 5 6
0.043974 0.02907 0.02907 2 5 6
0.044184 0.028956 0.028956 2 5 6
0.044393 0.028844 0.028844 2 5 6
0.044601 0.028734 0.028734 2 5 6
0.044809 0.028627 0.028627 2 5 6
0.045016 0.028521 0.028521 2 5 6
0.045223 0.028418 0.028418 2 5 6
0.045429 0.028317 0.028317 2 5 6
0.045634 0.028217 0.028217 2 5 6
0.045838 0.02812 0.02812 2 5 6
0.046041 0.028025 0.028025 2 5 6
0.046243 0.027931 0.027931 2 5 6
0.046443 0.02784 0.02784 2 5 6
0.046643 0.02775 0.02775 2 5 6
0.046841 0.027662 0.027662 2 5 6
0.047037 0.027576 0.027576 2 5 6
0.047232 0.027492 0.027492 2 5 6
0.047425 0.027409 0.027409 2 5 6
0.047616 0.027329 0.027329 2 5 6
0.047806 0.02725 0.02725 2 5 6
0.047993 0.027173 0.027173 2 5 6
0.048177 0.027097 0.027097 2 5 6
0.04836 0.027024 0.027024 2 5 6
0.04854 0.026952 0.026952 2 5 6
0.048717 0.026882 0.026882 2 5 6
0.048891 0.026814 0.026814 2 5 6
0.049062 0.026747 0.026747 2 5 6
0.04923 0.026683 0.026683 2 5 6
0.049394 0.02662 0.02662 2 5 6
0.049555 0.026559 0.026559 2 5 6
0.049712 0.0265 0.0265 2 5 6
0.049864 0.026443 0.026443 2 5 6
0.050013 0.026388 0.026388 2 5 6
0.050157 0.026334 0.026334 2 5 6
0.050296 0.026283 0.026283 2 5 6
0.050431 0.026234 0.026234 2 5 6
0.050561 0.026187 0.026187 2 5 6
0.050686 0.026142 0.026142 2 5 6
0.050805 0.026098 0.026098 2 5 6
0.05092 0.026057 0.026057 2 5 6
0.051029 0.026018 0.026018 2 5 6
0.051134 0.02598 0.02598 2 5 6
0.051233 0.025945 0.025945 2 5 6
0.051327 0.025911 0.025911 2 5 6
0.051417 0.025879 0.025879 2 5 6
0.051501 0.025849 0.025849 2 5 6
0.051581 0.025821 0.025821 2 5 6
0.051656 0.025794 0.025794 2 5 6
0.051727 0.025769 0.025769 2 5 6
0.051794 0.025745 0.025745 2 5 6
0.051856 0.025722 0.025722 2 5 6
0.051915 0.025701 0.025701 2 5 6
0.051971 0.025681 0.025681 2 5 6
0.052023 0.025663 0.025663 2 5 6
0.052071 0.025645 0.025645 2 5 6
0.052117 0.025628 0.025628 2 5 6
0.052159 0.025613 0.025613 2 5 6
0.052199 0.025598 0.025598 2 5 6
0.052237 0.025585 0.025585 2 5 6
0.052272 0.025572 0.025572 2 5 6
0.052304 0.02556 0.02556 2 5 6
0.052335 0.025548 0.025548 2 5 6
0.052363 0.025538 0.025538 2 5 6
0.052389 0.025528 0.025528 2 5 6
0.052414 0.025518 0.025518 2 5 6
0.052437 0.025509 0.025509 2 5 6
0.052458 0.025501 0.025501 2 5 6
0.052478 0.025493 0.025493 2 5 6
0.052496 0.025486 0.025486 2 5 6
0.052513 0.025479 0.025479 2 5 6
0.052529 0.025472 0.025472 2 5 6
0.052543 0.025466 0.025466 2 5 6
0.052557 0.025461 0.025461 2 5 6
0.052569 0.025455 0.025455 2 5 6
0.05258 0.02545 0.02545 2 5 6
0.052591 0.025446 0.025446 2 5 6
0.0526 0.025441 0.025441 2 5 6
0.052609 0.025437 0.025437 2 5 6
0.052616 0.025434 0.025434 2 5 6
0.052623 0.02543 0.02543 2 5 6
0.052629 0.025427 0.025427 2 5 6
0.052635 0.025424 0.025424 2 5 6
0.05264 0.025421 0.025421 2 5 6
0.052644 0.025418 0.025418 2 5 6
0.052647 0.025416 0.025416 2 5 6
0.05265 0.025414 0.025414 2 5 6
0.052653 0.025412 0.025412 2 5 6
0.052655 0.02541 0.02541 2 5 6
0.052656 0.025408 0.025408 2 5 6
0.052657 0.025407 0.025407 2 5 6
0.052658 0.025405 0.025405 2 5 6
0.052658 0.025404 0.025404 2 5 6
0.052658 0.025403 0.025403 2 5 6
0.052657 0.025402 0.025402 2 5 6
0.052656 0.025401 0.025401 2 5 6
0.052655 0.0254 0.0254 2 5 6
0.052653 0.025399 0.025399 2 5 6
0.052651 0.025399 0.025399 2 5 6
0.052649 0.025398 0.025398 2 5 6
0.052646 0.025398 0.025398 2 5 6
0.052643 0.025398 0.025398 2 5 6
0.05264 0.025397 0.025397 2 5 6
0.052637 0.025397 0.025397 2 5 6
0.052633 0.025397 0.025397 2 5 6
0.052629 0.025397 0.025397 2 5 6
0.052625 0.025397 0.025397 2 5 6
0.052621 0.025397 0.025397 2 5 6
0.052617 0.025398 0.025398 2 5 6
0.052612 0.025398 0.025398 2 5 6
0.052607 0.025398 0.025398 2 5 6
0.052602 0.025399 0.025399 2 5 6
0.052597 0.025399 0.025399 2 5 6
0.052592 0.025399 0.025399 2 5 6
0.052586 0.0254 0.0254 2 5 6
0.052581 0.025401 0.025401 2 5 6
0.052575 0.025401 0.025401 2 5 6
0.052569 0.025402 0.025402 2 5 6
0.052563 0.025403 0.025403 2 5 6
0.052557 0.025403 0.025403 2 5 6
0.05255 0.025404 0.025404 2 5 6
0.052544 0.025405 0.025405 2 5 6
0.052538 0.025406 0.025406 2 5 6
0.052531 0.025406 0.025406 2 5 6
0.052524 0.025407 0.025407 2 5 6
0.052518 0.025408 0.025408 2 5 6
0.052511 0.025409 0.025409 2 5 6
0.052504 0.02541 0.02541 2 5 6
0.052497 0.025411 0.025411 2 5 6
0.05249 0.025412 0.025412 2 5 6
0.052483 0.025413 0.025413 2 5 6
0.052475 0.025413 0.025413 2 5 6
0.052468 0.025414 0.025414 2 5 6
0.052461 0.025416 0.025416 2 5 6
0.052453 0.025417 0.025417 2 5 6
0.052446 0.025417 0.025417 2 5 6
0.052438 0.025419 0.025419 2 5 6
0.052431 0.02542 0.02542 2 5 6
0.052423 0.025421 0.025421 2 5 6
0.052415 0.025422 0.025422 2 5 6
0.052408 0.025423 0.025423 2 5 6
0.0524 0.025424 0.025424 2 5 6
0.052392 0.025425 0.025425 2 5 6
0.052385 0.025426 0.025426 2 5 6
0.052377 0.025427 0.025427 2 5 6
0.052369 0.025428 0.025428 2 5 6
0.052361 0.025429 0.025429 2 5 6
0.052353 0.02543 0.02543 2 5 6
0.052345 0.025431 0.025431 2 5 6
0.052337 0.025432 0.025432 2 5 6
0.052329 0.025433 0.025433 2 5 6
0.052321 0.025434 0.025434 2 5 6
0.052313 0.025435 0.025435 2 5 6
0.052305 0.025436 0.025436 2 5 6
0.052297 0.025437 0.025437 2 5 6
0.052289 0.025438 0.025438 2 5 6
0.05228 0.025439 0.025439 2 5 6
0.052272 0.02544 0.02544 2 5 6
0.052264 0.025441 0.025441 2 5 6
0.052256 0.025442 0.025442 2 5 6
0.052248 0.025443 0.025443 2 5 6
0.05224 0.025444 0.025444 2 5 6
0.052231 0.025444 0.025444 2 5 6
0.052223 0.025445 0.025445 2 5 6
0.052215 0.025446 0.025446 2 5 6
0.052207 0.025447 0.025447 2 5 6
0.052199 0.025448 0.025448 2 5 6
0.05219 0.025449 0.025449 2 5 6
0.052182 0.02545 0.02545 2 5 6
0.052174 0.02545 0.02545 2 5 6
0.052166 0.025451 0.025451 2 5 6
0.052157 0.025452 0.025452 2 5 6
0.052149 0.025453 0.025453 2 5 6
0.052141 0.025453 0.025453 2 5 6
0.052133 0.025454 0.025454 2 5 6
0.052124 0.025455 0.025455 2 5 6
0.052116 0.025455 0.025455 2 5 6
0.052108 0.025456 0.025456 2 5 6
0.0521 0.025457 0.025457 2 5 6
0.052092 0.025457 0.025457 2 5 6
0.052083 0.025458 0.025458 2 5 6
0.052075 0.025458 0.025458 2 5 6
0.052067 0.025459 0.025459 2 5 6
0.052059 0.025459 0.025459 2 5 6
0.052051 0.02546 0.02546 2 5 6
0.052042 0.02546 0.02546 2 5 6
0.052034 0.025461 0.025461 2 5 6
0.052026 0.025461 0.025461 2 5 6
0.052018 0.025462 0.025462 2 5 6
0.05201 0.025462 0.025462 2 5 6
0.052002 0.025462 0.025462 2 5 6
0.051993 0.025463 0.025463 2 5 6
0.051985 0.025463 0.025463 2 5 6
0.051977 0.025463 0.025463 2 5 6
0.051969 0.025463 0.025463 2 5 6
0.051961 0.025464 0.025464 2 5 6
0.051953 0.025464 0.025464 2 5 6
0.051945 0.025464 0.025464 2 5 6
0.051937 0.025464 0.025464 2 5 6
0.051929 0.025464 0.025464 2 5 6
0.051921 0.025464 0.025464 2 5 6
0.051913 0.025464 0.025464 2 5 6
0.051905 0.025464 0.025464 2 5 6
0.051897 0.025464 0.025464 2 5 6
0.051889 0.025464 0.025464 2 5 6
0.051881 0.025464 0.025464 2 5 6
0.051873 0.025464 0.025464 2 5 6
0.051865 0.025464 0.025464 2 5 6
0.051857 0.025463 0.025463 2 5 6
0.051849 0.025463 0.025463 2 5 6
0.051841 0.025463 0.025463 2 5 6
0.051833 0.025463 0.025463 2 5 6
0.051825 0.025462 0.025462 2 5 6
0.051817 0.025462 0.025462 2 5 6
0.051809 0.025462 0.025462 2 5 6
0.051801 0.025461 0.025461 2 5 6
0.051793 0.025461 0.025461 2 5 6
0.051786 0.02546 0.02546 2 5 6
0.051778 0.025459 0.025459 2 5 6
0.05177 0.025459 0.025459 2 5 6
0.051762 0.025458 0.025458 2 5 6
0.051754 0.025458 0.025458 2 5 6
0.051747 0.025457 0.025457 2 5 6
0.051739 0.025456 0.025456 2 5 6
0.051731 0.025455 0.025455 2 5 6
0.051723 0.025455 0.025455 2 5 6
0.051716 0.025454 0.025454 2 5 6
0.051708 0.025453 0.025453 2 5 6
0.0517 0.025452 0.025452 2 5 6
0.051693 0.025451 0.025451 2 5 6
0.051685 0.02545 0.02545 2 5 6
0.051677 0.025449 0.025449 2 5 6
0.05167 0.025448 0.025448 2 5 6
0.051662 0.025447 0.025447 2 5 6
0.051654 0.025445 0.025445 2 5 6
0.051647 0.025444 0.025444 2 5 6
0.051639 0.025443 0.025443 2 5 6
0.051631 0.025442 0.025442 2 5 6
0.051624 0.02544 0.02544 2 5 6
0.051616 0.025439 0.025439 2 5 6
0.051609 0.025437 0.025437 2 5 6
0.051601 0.025436 0.025436 2 5 6
0.051594 0.025434 0.025434 2 5 6
0.051586 0.025433 0.025433 2 5 6
0.051579 0.025431 0.025431 2 5 6
0.051571 0.02543 0.02543 2 5 6
0.051564 0.025428 0.025428 2 5 6
0.051556 0.025426 0.025426 2 5 6
0.051549 0.025424 0.025424 2 5 6
0.051541 0.025423 0.025423 2 5 6
0.051534 0.025421 0.025421 2 5 6
0.051527 0.025419 0.025419 2 5 6
0.051519 0.025417 0.025417 2 5 6
0.051512 0.025415 0.025415 2 5 6
0.051504 0.025413 0.025413 2 5 6
0.051497 0.02541 0.02541 2 5 6
0.05149 0.025408 0.025408 2 5 6
0.051482 0.025406 0.025406 2 5 6
0.051475 0.025404 0.025404 2 5 6
0.051468 0.025401 0.025401 2 5 6
0.05146 0.025399 0.025399 2 5 6
0.051453 0.025396 0.025396 2 5 6
0.051446 0.025394 0.025394 2 5 6
0.051438 0.025391 0.025391 2 5 6
0.051431 0.025389 0.025389 2 5 6
0.051424 0.025386 0.025386 2 5 6
0.051417 0.025383 0.025383 2 5 6
0.051409 0.025381 0.025381 2 5 6
0.051402 0.025378 0.025378 2 5 6
0.051395 0.025375 0.025375 2 5 6
0.051388 0.025372 0.025372 2 5 6
0.051381 0.025369 0.025369 2 5 6
0.051373 0.025366 0.025366 2 5 6
0.051366 0.025363 0.025363 2 5 6
0.051359 0.02536 0.02536 2 5 6
0.051352 0.025356 0.025356 2 5 6
0.051345 0.025353 0.025353 2 5 6
0.051338 0.02535 0.02535 2 5 6
0.051331 0.025346 0.025346 2 5 6
0.051323 0.025343 0.025343 2 5 6
0.051316 0.025339 0.025339 2 5 6
0.051309 0.025336 0.025336 2 5 6
0.051302 0.025332 0.025332 2 5 6
0.051295 0.025329 0.025329 2 5 6
0.051288 0.025325 0.025325 2 5 6
0.051281 0.025321 0.025321 2 5 6
0.051274 0.025317 0.025317 2 5 6
0.051267 0.025313 0.025313 2 5 6
0.051259 0.025309 0.025309 2 5 6
0.051252 0.025305 0.025305 2 5 6
0.051245 0.025301 0.025301 2 5 6
0.051238 0.025297 0.025297 2 5 6
0.051231 0.025292 0.025292 2 5 6
0.051224 0.025288 0.025288 2 5 6
0.051217 0.025284 0.025284 2 5 6
0.05121 0.025279 0.025279 2 5 6
0.051203 0.025275 0.025275 2 5 6
0.051196 0.02527 0.02527 2 5 6
0.051189 0.025265 0.025265 2 5 6
0.051182 0.025261 0.025261 2 5 6
0.051175 0.025256 0.025256 2 5 6
0.051168 0.025251 0.025251 2 5 6
0.051161 0.025246 0.025246 2 5 6
0.051154 0.025241 0.025241 2 5 6
0.051147 0.025236 0.025236 2 5 6
0.05114 0.025231 0.025231 2 5 6
0.051133 0.025225 0.025225 2 5 6
0.051126 0.02522 0.02522 2 5 6
0.05112 0.025215 0.025215 2 5 6
0.051113 0.025209 0.025209 2 5 6
0.051106 0.025204 0.025204 2 5 6
0.051099 0.025198 0.025198 2 5 6
0.051092 0.025192 0.025192 2 5 6
0.051085 0.025187 0.025187 2 5 6
0.051078 0.025181 0.025181 2 5 6
0.051071 0.025175 0.025175 2 5 6
0.051064 0.025169 0.025169 2 5 6
0.051057 0.025163 0.025163 2 5 6
0.05105 0.025156 0.025156 2 5 6
0.051043 0.02515 0.02515 2 5 6
0.051036 0.025144 0.025144 2 5 6
0.051029 0.025138 0.025138 2 5 6
0.051023 0.025131 0.025131 2 5 6
0.051016 0.025124 0.025124 2 5 6
0.051009 0.025118 0.025118 2 5 6
0.051002 0.025111 0.025111 2 5 6
0.050995 0.025104 0.025104 2 5 6
0.050988 0.025097 0.025097 2 5 6
0.050981 0.02509 0.02509 2 5 6
0.050974 0.025083 0.025083 2 5 6
0.050967 0.025076 0.025076 2 5 6
0.05096 0.025069 0.025069 2 5 6
0.050953 0.025062 0.025062 2 5 6
0.050946 0.025054 0.025054 2 5 6
0.050939 0.025046 0.025046 2 5 6
0.050932 0.025039 0.025039 2 5 6
0.050926 0.025031 0.025031 2 5 6
0.050919 0.025023 0.025023 2 5 6
0.050912 0.025016 0.025016 2 5 6
0.050905 0.025008 0.025008 2 5 6
0.050898 0.025 0.025 2 5 6
0.050891 0.024991 0.024991 2 5 6
0.050884 0.024983 0.024983 2 5 6
0.050877 0.024975 0.024975 2 5 6
0.05087 0.024966 0.024966 2 5 6
0.050863 0.024958 0.024958 2 5 6
0.050856 0.024949 0.024949 2 5 6
0.050849 0.02494 0.02494 2 5 6
0.050842 0.024932 0.024932 2 5 6
0.050835 0.024923 0.024923 2 5 6
0.050828 0.024914 0.024914 2 5 6
0.050821 0.024904 0.024904 2 5 6
0.050814 0.024895 0.024895 2 5 6
0.050807 0.024886 0.024886 2 5 6
0.0508 0.024876 0.024876 2 5 6
0.050793 0.024867 0.024867 2 5 6
0.050786 0.024857 0.024857 2 5 6
0.050779 0.024848 0.024848 2 5 6
0.050772 0.024838 0.024838 2 5 6
0.050765 0.024828 0.024828 2 5 6
0.050758 0.024818 0.024818 2 5 6
0.05075 0.024807 0.024807 2 5 6
0.050743 0.024797 0.024797 2 5 6
0.050736 0.024787 0.024787 2 5 6
0.050729 0.024776 0.024776 2 5 6
0.050722 0.024766 0.024766 2 5 6
0.050715 0.024755 0.024755 2 5 6
0.050708 0.024744 0.024744 2 5 6
0.050701 0.024733 0.024733 2 5 6
0.050693 0.024722 0.024722 2 5 6
0.050686 0.024711 0.024711 2 5 6
0.050679 0.0247 0.0247 2 5 6
0.050672 0.024688 0.024688 2 5 6
0.050664 0.024677 0.024677 2 5 6
0.050657 0.024665 0.024665 2 5 6
0.05065 0.024653 0.024653 2 5 6
0.050643 0.024641 0.024641 2 5 6
0.050635 0.024629 0.024629 2 5 6
0.050628 0.024617 0.024617 2 5 6
0.05062 0.024605 0.024605 2 5 6
0.050613 0.024593 0.024593 2 5 6
0.050606 0.02458 0.02458 2 5 6
0.050598 0.024568 0.024568 2 5 6
0.050591 0.024555 0.024555 2 5 6
0.050583 0.024542 0.024542 2 5 6
0.050576 0.024529 0.024529 2 5 6
0.050568 0.024516 0.024516 2 5 6
0.050561 0.024503 0.024503 2 5 6
0.050553 0.024489 0.024489 2 5 6
0.050546 0.024476 0.024476 2 5 6
0.050538 0.024462 0.024462 2 5 6
0.05053 0.024448 0.024448 2 5 6
0.050523 0.024434 0.024434 2 5 6
0.050515 0.02442 0.02442 2 5 6
0.050507 0.024406 0.024406 2 5 6
0.0505 0.024392 0.024392 2 5 6
0.050492 0.024377 0.024377 2 5 6
0.050484 0.024363 0.024363 2 5 6
0.050476 0.024348 0.024348 2 5 6
0.050469 0.024333 0.024333 2 5 6
0.050461 0.024318 0.024318 2 5 6
0.050453 0.024303 0.024303 2 5 6
0.050445 0.024288 0.024288 2 5 6
0.050437 0.024272 0.024272 2 5 6
0.050429 0.024257 0.024257 2 5 6
0.050421 0.024241 0.024241 2 5 6
0.050413 0.024225 0.024225 2 5 6
0.050405 0.024209 0.024209 2 5 6
0.050397 0.024193 0.024193 2 5 6
0.050389 0.024177 0.024177 2 5 6
0.05038 0.02416 0.02416 2 5 6
0.050372 0.024144 0.024144 2 5 6
0.050364 0.024127 0.024127 2 5 6
0.050355 0.02411 0.02411 2 5 6
0.050347 0.024093 0.024093 2 5 6
0.050339 0.024076 0.024076 2 5 6
0.05033 0.024059 0.024059 2 5 6
0.050322 0.024041 0.024041 2 5 6
0.050313 0.024023 0.024023 2 5 6
0.050305 0.024006 0.024006 2 5 6
0.050296 0.023988 0.023988 2 5 6
0.050287 0.023969 0.023969 2 5 6
0.050278 0.023951 0.023951 2 5 6
0.05027 0.023933 0.023933 2 5 6
0.050261 0.023914 0.023914 2 5 6
0.050252 0.023895 0.023895 2 5 6
0.050243 0.023876 0.023876 2 5 6
0.050234 0.023857 0.023857 2 5 6
0.050225 0.023838 0.023838 2 5 6
0.050216 0.023818 0.023818 2 5 6
0.050207 0.023799 0.023799 2 5 6
0.050198 0.023779 0.023779 2 5 6
0.050188 0.023759 0.023759 2 5 6
0.050179 0.023739 0.023739 2 5 6
0.05017 0.023719 0.023719 2 5 6
0.05016 0.023698 0.023698 2 5 6
0.050151 0.023678 0.023678 2 5 6
0.050141 0.023657 0.023657 2 5 6
0.050132 0.023636 0.023636 2 5 6
0.050122 0.023615 0.023615 2 5 6
0.050112 0.023593 0.023593 2 5 6
0.050102 0.023572 0.023572 2 5 6
0.050092 0.02355 0.02355 2 5 6
0.050083 0.023528 0.023528 2 5 6
0.050072 0.023506 0.023506 2 5 6
0.050062 0.023484 0.023484 2 5 6
0.050052 0.023462 0.023462 2 5 6
0.050042 0.023439 0.023439 2 5 6
0.050032 0.023416 0.023416 2 5 6
0.050021 0.023393 0.023393 2 5 6
0.050011 0.02337 0.02337 2 5 6
0.05 0.023347 0.023347 2 5 6
0.049989 0.023323 0.023323 2 5 6
0.049979 0.0233 0.0233 2 5 6
0.049968 0.023276 0.023276 2 5 6
0.049957 0.023252 0.023252 2 5 6
0.049946 0.023227 0.023227 2 5 6
0.049935 0.023203 0.023203 2 5 6
0.049924 0.023178 0.023178 2 5 6
0.049912 0.023154 0.023154 2 5 6
0.049901 0.023128 0.023128 2 5 6
0.04989 0.023103 0.023103 2 5 6
0.049878 0.023078 0.023078 2 5 6
0.049866 0.023052 0.023052 2 5 6
0.049855 0.023026 0.023026 2 5 6
0.049843 0.023 0.023 2 5 6
0.049831 0.022974 0.022974 2 5 6
0.049819 0.022948 0.022948 2 5 6
0.049807 0.022921 0.022921 2 5 6
0.049794 0.022895 0.022895 2 5 6
0.049782 0.022867 0.022867 2 5 6
0.049769 0.02284 0.02284 2 5 6
0.049757 0.022813 0.022813 2 5 6
0.049744 0.022785 0.022785 2 5 6
0.049731 0.022757 0.022757 2 5 6
0.049718 0.02273 0.02273 2 5 6
0.049705 0.022701 0.022701 2 5 6
0.049692 0.022673 0.022673 2 5 6
0.049679 0.022644 0.022644 2 5 6
0.049665 0.022616 0.022616 2 5 6
0.049651 0.022587 0.022587 2 5 6
0.049638 0.022557 0.022557 2 5 6
0.049624 0.022528 0.022528 2 5 6
0.04961 0.022498 0.022498 2 5 6
0.049596 0.022469 0.022469 2 5 6
0.049581 0.022439 0.022439 2 5 6
0.049567 0.022408 0.022408 2 5 6
0.049552 0.022378 0.022378 2 5 6
0.049538 0.022347 0.022347 2 5 6
0.049523 0.022316 0.022316 2 5 6
0.049508 0.022285 0.022285 2 5 6
0.049493 0.022254 0.022254 2 5 6
0.049477 0.022223 0.022223 2 5 6
0.049462 0.022191 0.022191 2 5 6
0.049446 0.022159 0.022159 2 5 6
0.049431 0.022127 0.022127 2 5 6
0.049415 0.022095 0.022095 2 5 6
0.049399 0.022062 0.022062 2 5 6
0.049382 0.02203 0.02203 2 5 6
0.049366 0.021997 0.021997 2 5 6
0.049349 0.021964 0.021964 2 5 6
0.049333 0.02193 0.02193 2 5 6
0.049316 0.021897 0.021897 2 5 6
0.049299 0.021863 0.021863 2 5 6
0.049281 0.021829 0.021829 2 5 6
0.049264 0.021795 0.021795 2 5 6
0.049246 0.02176 0.02176 2 5 6
0.049229 0.021726 0.021726 2 5 6
0.049211 0.021691 0.021691 2 5 6
0.049193 0.021656 0.021656 2 5 6
0.049174 0.021621 0.021621 2 5 6
0.049156 0.021586 0.021586 2 5 6
0.049137 0.02155 0.02155 2 5 6
0.049118 0.021514 0.021514 2 5 6
0.049099 0.021478 0.021478 2 5 6
0.04908 0.021442 0.021442 2 5 6
0.04906 0.021406 0.021406 2 5 6
0.049041 0.021369 0.021369 2 5 6
0.049021 0.021332 0.021332 2 5 6
0.049001 0.021295 0.021295 2 5 6
0.04898 0.021258 0.021258 2 5 6
0.04896 0.021221 0.021221 2 5 6
0.048939 0.021183 0.021183 2 5 6
0.048918 0.021145 0.021145 2 5 6
0.048897 0.021107 0.021107 2 5 6
0.048876 0.021069 0.021069 2 5 6
0.048854 0.021031 0.021031 2 5 6
0.048832 0.020992 0.020992 2 5 6
0.04881 0.020953 0.020953 2 5 6
0.048788 0.020915 0.020915 2 5 6
0.048766 0.020875 0.020875 2 5 6
0.048743 0.020836 0.020836 2 5 6
0.04872 0.020797 0.020797 2 5 6
0.048697 0.020757 0.020757 2 5 6
0.048674 0.020717 0.020717 2 5 6
0.04865 0.020677 0.020677 2 5 6
0.048627 0.020637 0.020637 2 5 6
0.048603 0.020596 0.020596 2 5 6
0.048578 0.020556 0.020556 2 5 6
0.048554 0.020515 0.020515 2 5 6
0.048529 0.020474 0.020474 2 5 6
0.048504 0.020432 0.020432 2 5 6
0.048479 0.020391 0.020391 2 5 6
0.048454 0.02035 0.02035 2 5 6
0.048428 0.020308 0.020308 2 5 6
0.048402 0.020266 0.020266 2 5 6
0.048376 0.020224 0.020224 2 5 6
0.04835 0.020182 0.020182 2 5 6
0.048323 0.020139 0.020139 2 5 6
0.048296 0.020097 0.020097 2 5 6
0.048269 0.020054 0.020054 2 5 6
0.048242 0.020011 0.020011 2 5 6
0.048214 0.019968 0.019968 2 5 6
0.048187 0.019925 0.019925 2 5 6
0.048159 0.019881 0.019881 2 5 6
0.04813 0.019838 0.019838 2 5 6
0.048102 0.019794 0.019794 2 5 6
0.048073 0.01975 0.01975 2 5 6
0.048044 0.019706 0.019706 2 5 6
0.048015 0.019662 0.019662 2 5 6
0.047985 0.019618 0.019618 2 5 6
0.047955 0.019573 0.019573 2 5 6
0.047925 0.019529 0.019529 2 5 6
0.047895 0.019484 0.019484 2 5 6
0.047864 0.019439 0.019439 2 5 6
0.047834 0.019394 0.019394 2 5 6
0.047803 0.019349 0.019349 2 5 6
0.047772 0.019303 0.019303 2 5 6
0.04774 0.019258 0.019258 2 5 6
0.047708 0.019212 0.019212 2 5 6
0.047676 0.019166 0.019166 2 5 6
0.047644 0.019121 0.019121 2 5 6
0.047611 0.019075 0.019075 2 5 6
0.047579 0.019028 0.019028 2 5 6
0.047546 0.018982 0.018982 2 5 6
0.047512 0.018936 0.018936 2 5 6
0.047479 0.018889 0.018889 2 5 6
0.047445 0.018843 0.018843 2 5 6
0.047411 0.018796 0.018796 2 5 6
0.047377 0.018749 0.018749 2 5 6
0.047342 0.018702 0.018702 2 5 6
0.047308 0.018655 0.018655 2 5 6
0.047273 0.018607 0.018607 2 5 6
0.047237 0.01856 0.01856 2 5 6
0.047202 0.018512 0.018512 2 5 6
0.047166 0.018465 0.018465 2 5 6
0.04713 0.018417 0.018417 2 5 6
0.047094 0.018369 0.018369 2 5 6
0.047058 0.018321 0.018321 2 5 6
0.047021 0.018273 0.018273 2 5 6
0.046984 0.018225 0.018225 2 5 6
0.046947 0.018177 0.018177 2 5 6
0.04691 0.018128 0.018128 2 5 6
0.046872 0.01808 0.01808 2 5 6
0.046834 0.018032 0.018032 2 5 6
0.046796 0.017983 0.017983 2 5 6
0.046758 0.017934 0.017934 2 5 6
0.046719 0.017885 0.017885 2 5 6
0.04668 0.017837 0.017837 2 5 6
0.046641 0.017788 0.017788 2 5 6
0.046602 0.017739 0.017739 2 5 6
0.046563 0.017689 0.017689 2 5 6
0.046523 0.01764 0.01764 2 5 6
0.046483 0.017591 0.017591 2 5 6
0.046443 0.017542 0.017542 2 5 6
0.046403 0.017492 0.017492 2 5 6
0.046362 0.017442 0.017442 2 5 6
0.046321 0.017393 0.017393 2 5 6
0.04628 0.017343 0.017343 2 5 6
0.046239 0.017293 0.017293 2 5 6
0.046198 0.017244 0.017244 2 5 6
0.046156 0.017194 0.017194 2 5 6
0.046114 0.017144 0.017144 2 5 6
0.046072 0.017094 0.017094 2 5 6
0.04603 0.017044 0.017044 2 5 6
0.045988 0.016994 0.016994 2 5 6
0.045945 0.016944 0.016944 2 5 6
0.045902 0.016893 0.016893 2 5 6
0.045859 0.016843 0.016843 2 5 6
0.045816 0.016793 0.016793 2 5 6
0.045772 0.016742 0.016742 2 5 6
0.045729 0.016692 0.016692 2 5 6
0.045685 0.016642 0.016642 2 5 6
0.045641 0.016591 0.016591 2 5 6
0.045596 0.01654 0.01654 2 5 6
0.045552 0.01649 0.01649 2 5 6
0.045507 0.016439 0.016439 2 5 6
0.045463 0.016389 0.016389 2 5 6
0.045418 0.016338 0.016338 2 5 6
0.045373 0.016287 0.016287 2 5 6
0.045327 0.016236 0.016236 2 5 6
0.045282 0.016186 0.016186 2 5 6
0.045236 0.016135 0.016135 2 5 6
0.04519 0.016084 0.016084 2 5 6
0.045144 0.016033 0.016033 2 5 6
0.045098 0.015982 0.015982 2 5 6
0.045052 0.015931 0.015931 2 5 6
0.045005 0.01588 0.01588 2 5 6
0.044959 0.015829 0.015829 2 5 6
0.044912 0.015778 0.015778 2 5 6
0.044865 0.015727 0.015727 2 5 6
0.044818 0.015676 0.015676 2 5 6
0.044771 0.015625 0.015625 2 5 6
0.044723 0.015574 0.015574 2 5 6
0.044676 0.015523 0.015523 2 5 6
0.044628 0.015472 0.015472 2 5 6
0.04458 0.015421 0.015421 2 5 6
0.044532 0.01537 0.01537 2 5 6
0.044484 0.015319 0.015319 2 5 6
0.044436 0.015268 0.015268 2 5 6
0.044388 0.015217 0.015217 2 5 6
0.044339 0.015165 0.015165 2 5 6
0.04429 0.015114 0.015114 2 5 6
0.044242 0.015063 0.015063 2 5 6
0.044193 0.015012 0.015012 2 5 6
0.044144 0.014961 0.014961 2 5 6
0.044094 0.01491 0.01491 2 5 6
0.044045 0.014859 0.014859 2 5 6
0.043996 0.014808 0.014808 2 5 6
0.043946 0.014757 0.014757 2 5 6
0.043897 0.014706 0.014706 2 5 6
0.043847 0.014655 0.014655 2 5 6
0.043797 0.014604 0.014604 2 5 6
0.043747 0.014553 0.014553 2 5 6
0.043697 0.014502 0.014502 2 5 6
0.043647 0.014451 0.014451 2 5 6
0.043597 0.0144 0.0144 2 5 6
0.043546 0.014349 0.014349 2 5 6
0.043496 0.014298 0.014298 2 5 6
0.043445 0.014247 0.014247 2 5 6
0.043395 0.014196 0.014196 2 5 6
0.043344 0.014145 0.014145 2 5 6
0.043293 0.014094 0.014094 2 5 6
0.043242 0.014044 0.014044 2 5 6
0.043191 0.013993 0.013993 2 5 6
0.04314 0.013942 0.013942 2 5 6
0.043089 0.013891 0.013891 2 5 6
0.043038 0.013841 0.013841 2 5 6
0.042987 0.01379 0.01379 2 5 6
0.042935 0.013739 0.013739 2 5 6
0.042884 0.013689 0.013689 2 5 6
0.042832 0.013638 0.013638 2 5 6
0.042781 0.013588 0.013588 2 5 6
0.042729 0.013537 0.013537 2 5 6
0.042678 0.013487 0.013487 2 5 6
0.042626 0.013437 0.013437 2 5 6
0.042574 0.013386 0.013386 2 5 6
0.042522 0.013336 0.013336 2 5 6
0.04247 0.013286 0.013286 2 5 6
0.042418 0.013236 0.013236 2 5 6
0.042366 0.013185 0.013185 2 5 6
0.042314 0.013135 0.013135 2 5 6
0.042262 0.013085 0.013085 2 5 6
0.04221 0.013035 0.013035 2 5 6
0.042158 0.012985 0.012985 2 5 6
0.042105 0.012935 0.012935 2 5 6
0.042053 0.012885 0.012885 2 5 6
0.042001 0.012835 0.012835 2 5 6
0.041948 0.012786 0.012786 2 5 6
0.041896 0.012736 0.012736 2 5 6
0.041843 0.012686 0.012686 2 5 6
0.041791 0.012637 0.012637 2 5 6
0.041739 0.012587 0.012587 2 5 6
0.041686 0.012538 0.012538 2 5 6
0.041634 0.012488 0.012488 2 5 6
0.041581 0.012439 0.012439 2 5 6
0.041529 0.01239 0.01239 2 5 6
0.041476 0.01234 0.01234 2 5 6
0.041423 0.012291 0.012291 2 5 6
0.041371 0.012242 0.012242 2 5 6
0.041318 0.012193 0.012193 2 5 6
0.041265 0.012144 0.012144 2 5 6
0.041213 0.012095 0.012095 2 5 6
0.04116 0.012046 0.012046 2 5 6
0.041107 0.011997 0.011997 2 5 6
0.041055 0.011949 0.011949 2 5 6
0.041002 0.0119 0.0119 2 5 6
0.040949 0.011851 0.011851 2 5 6
0.040897 0.011803 0.011803 2 5 6
0.040844 0.011754 0.011754 2 5 6
0.040791 0.011706 0.011706 2 5 6
0.040738 0.011657 0.011657 2 5 6
0.040686 0.011609 0.011609 2 5 6
0.040633 0.011561 0.011561 2 5 6
0.04058 0.011513 0.011513 2 5 6
0.040528 0.011465 0.011465 2 5 6
0.040475 0.011417 0.011417 2 5 6
0.040423 0.011369 0.011369 2 5 6
0.04037 0.011321 0.011321 2 5 6
0.040317 0.011273 0.011273 2 5 6
0.040265 0.011226 0.011226 2 5 6
0.040212 0.011178 0.011178 2 5 6
0.04016 0.01113 0.01113 2 5 6
0.040107 0.011083 0.011083 2 5 6
0.040055 0.011036 0.011036 2 5 6
0.040002 0.010988 0.010988 2 5 6
0.03995 0.010941 0.010941 2 5 6
0.039897 0.010894 0.010894 2 5 6
0.039845 0.010847 0.010847 2 5 6
0.039793 0.0108 0.0108 2 5 6
0.03974 0.010753 0.010753 2 5 6
0.039688 0.010706 0.010706 2 5 6
0.039636 0.010659 0.010659 2 5 6
0.039584 0.010613 0.010613 2 5 6
0.039531 0.010566 0.010566 2 5 6
0.039479 0.01052 0.01052 2 5 6
0.039427 0.010473 0.010473 2 5 6
0.039375 0.010427 0.010427 2 5 6
0.039323 0.010381 0.010381 2 5 6
0.039271 0.010334 0.010334 2 5 6
0.039219 0.010288 0.010288 2 5 6
0.039167 0.010242 0.010242 2 5 6
0.039115 0.010197 0.010197 2 5 6
0.039063 0.010151 0.010151 2 5 6
0.039012 0.010105 0.010105 2 5 6
0.03896 0.010059 0.010059 2 5 6
0.038908 0.010014 0.010014 2 5 6
0.038857 0.0099683 0.0099683 2 5 6
0.038805 0.0099229 0.0099229 2 5 6
0.038754 0.0098776 0.0098776 2 5 6
0.038702 0.0098324 0.0098324 2 5 6
0.038651 0.0097873 0.0097873 2 5 6
0.038599 0.0097423 0.0097423 2 5 6
0.038548 0.0096973 0.0096973 2 5 6
0.038497 0.0096525 0.0096525 2 5 6
0.038446 0.0096077 0.0096077 2 5 6
0.038395 0.0095631 0.0095631 2 5 6
0.038344 0.0095185 0.0095185 2 5 6
0.038293 0.009474 0.009474 2 5 6
0.038242 0.0094296 0.0094296 2 5 6
0.038191 0.0093853 0.0093853 2 5 6
0.03814 0.0093411 0.0093411 2 5 6
0.038089 0.009297 0.009297 2 5 6
0.038039 0.009253 0.009253 2 5 6
0.037988 0.009209 0.009209 2 5 6
0.037937 0.0091652 0.0091652 2 5 6
0.037887 0.0091215 0.0091215 2 5 6
0.037837 0.0090778 0.0090778 2 5 6
0.037786 0.0090343 0.0090343 2 5 6
0.037736 0.0089908 0.0089908 2 5 6
0.037686 0.0089474 0.0089474 2 5 6
0.037636 0.0089042 0.0089042 2 5 6
0.037586 0.008861 0.008861 2 5 6
0.037536 0.0088179 0.0088179 2 5 6
0.037486 0.008775 0.008775 2 5 6
0.037436 0.0087321 0.0087321 2 5 6
0.037387 0.0086893 0.0086893 2 5 6
0.037337 0.0086466 0.0086466 2 5 6
0.037288 0.008604 0.008604 2 5 6
0.037238 0.0085615 0.0085615 2 5 6
0.037189 0.0085191 0.0085191 2 5 6
0.037139 0.0084768 0.0084768 2 5 6
0.03709 0.0084346 0.0084346 2 5 6
0.037041 0.0083925 0.0083925 2 5 6
0.036992 0.0083505 0.0083505 2 5 6
0.036943 0.0083086 0.0083086 2 5 6
0.036894 0.0082668 0.0082668 2 5 6
0.036845 0.0082251 0.0082251 2 5 6
0.036797 0.0081835 0.0081835 2 5 6
0.036748 0.0081419 0.0081419 2 5 6
0.0367 0.0081005 0.0081005 2 5 6
0.036651 0.0080592 0.0080592 2 5 6
0.036603 0.008018 0.008018 2 5 6
0.036554 0.0079769 0.0079769 2 5 6
0.036506 0.0079359 0.0079359 2 5 6
0.036458 0.007895 0.007895 2 5 6
0.03641 0.0078542 0.0078542 2 5 6
0.036362 0.0078134 0.0078134 2 5 6
0.036315 0.0077728 0.0077728 2 5 6
0.036267 0.0077323 0.0077323 2 5 6
0.03622 0.0076919 0.0076919 2 5 6
0.036172 0.0076516 0.0076516 2 5 6
0.036125 0.0076114 0.0076114 2 5 6
0.036077 0.0075713 0.0075713 2 5 6
0.03603 0.0075313 0.0075313 2 5 6
0.035983 0.0074914 0.0074914 2 5 6
0.035936 0.0074516 0.0074516 2 5 6
0.035889 0.007412 0.007412 2 5 6
0.035842 0.0073724 0.0073724 2 5 6
0.035796 0.0073329 0.0073329 2 5 6
0.035749 0.0072935 0.0072935 2 5 6
0.035702 0.0072542 0.0072542 2 5 6
0.035656 0.0072151 0.0072151 2 5 6
0.03561 0.007176 0.007176 2 5 6
0.035564 0.007137 0.007137 2 5 6
0.035518 0.0070982 0.0070982 2 5 6
0.035472 0.0070594 0.0070594 2 5 6
0.035426 0.0070208 0.0070208 2 5 6
0.03538 0.0069822 0.0069822 2 5 6
0.035334 0.0069438 0.0069438 2 5 6
0.035289 0.0069054 0.0069054 2 5 6
0.035243 0.0068672 0.0068672 2 5 6
0.035198 0.0068291 0.0068291 2 5 6
0.035153 0.006791 0.006791 2 5 6
0.035108 0.0067531 0.0067531 2 5 6
0.035063 0.0067153 0.0067153 2 5 6
0.035018 0.0066776 0.0066776 2 5 6
0.034973 0.00664 0.00664 2 5 6
0.034928 0.0066025 0.0066025 2 5 6
0.034884 0.0065651 0.0065651 2 5 6
0.034839 0.0065278 0.0065278 2 5 6
0.034795 0.0064906 0.0064906 2 5 6
0.034751 0.0064535 0.0064535 2 5 6
0.034707 0.0064166 0.0064166 2 5 6
0.034663 0.0063797 0.0063797 2 5 6
0.034619 0.0063429 0.0063429 2 5 6
0.034575 0.0063063 0.0063063 2 5 6
0.034531 0.0062697 0.0062697 2 5 6
0.034488 0.0062333 0.0062333 2 5 6
0.034444 0.006197 0.006197 2 5 6
0.034401 0.0061607 0.0061607 2 5 6
0.034358 0.0061246 0.0061246 2 5 6
0.034315 0.0060886 0.0060886 2 5 6
0.034272 0.0060527 0.0060527 2 5 6
0.034229 0.0060169 0.0060169 2 5 6
0.034186 0.0059812 0.0059812 2 5 6
0.034144 0.0059456 0.0059456 2 5 6
0.034101 0.0059101 0.0059101 2 5 6
0.034059 0.0058748 0.0058748 2 5 6
0.034017 0.0058395 0.0058395 2 5 6
0.033974 0.0058043 0.0058043 2 5 6
0.033932 0.0057693 0.0057693 2 5 6
0.03389 0.0057343 0.0057343 2 5 6
0.033849 0.0056995 0.0056995 2 5 6
0.033807 0.0056648 0.0056648 2 5 6
0.033765 0.0056301 0.0056301 2 5 6
0.033724 0.0055956 0.0055956 2 5 6
0.033683 0.0055612 0.0055612 2 5 6
0.033642 0.0055269 0.0055269 2 5 6
0.033601 0.0054927 0.0054927 2 5 6
0.03356 0.0054586 0.0054586 2 5 6
0.033519 0.0054246 0.0054246 2 5 6
0.033478 0.0053908 0.0053908 2 5 6
0.033438 0.005357 0.005357 2 5 6
0.033397 0.0053233 0.0053233 2 5 6
0.033357 0.0052898 0.0052898 2 5 6
0.033317 0.0052563 0.0052563 2 5 6
0.033277 0.005223 0.005223 2 5 6
0.033237 0.0051898 0.0051898 2 5 6
0.033197 0.0051567 0.0051567 2 5 6
0.033157 0.0051236 0.0051236 2 5 6
0.033117 0.0050907 0.0050907 2 5 6
0.033078 0.0050579 0.0050579 2 5 6
0.033039 0.0050252 0.0050252 2 5 6
0.032999 0.0049927 0.0049927 2 5 6
0.03296 0.0049602 0.0049602 2 5 6
0.032921 0.0049278 0.0049278 2 5 6
0.032883 0.0048955 0.0048955 2 5 6
0.032844 0.0048634 0.0048634 2 5 6
0.032805 0.0048313 0.0048313 2 5 6
0.032767 0.0047994 0.0047994 2 5 6
0.032728 0.0047675 0.0047675 2 5 6
0.03269 0.0047358 0.0047358 2 5 6
0.032652 0.0047042 0.0047042 2 5 6
0.032614 0.0046727 0.0046727 2 5 6
0.032576 0.0046412 0.0046412 2 5 6
0.032538 0.0046099 0.0046099 2 5 6
0.032501 0.0045787 0.0045787 2 5 6
0.032463 0.0045476 0.0045476 2 5 6
0.032426 0.0045166 0.0045166 2 5 6
0.032389 0.0044858 0.0044858 2 5 6
0.032352 0.004455 0.004455 2 5 6
0.032315 0.0044243 0.0044243 2 5 6
0.032278 0.0043938 0.0043938 2 5 6
0.032241 0.0043633 0.0043633 2 5 6
0.032205 0.0043329 0.0043329 2 5 6
0.032168 0.0043027 0.0043027 2 5 6
0.032132 0.0042725 0.0042725 2 5 6
0.032096 0.0042425 0.0042425 2 5 6
0.03206 0.0042126 0.0042126 2 5 6
0.032024 0.0041828 0.0041828 2 5 6
0.031988 0.004153 0.004153 2 5 6
0.031952 0.0041234 0.0041234 2 5 6
0.031917 0.0040939 0.0040939 2 5 6
0.031881 0.0040645 0.0040645 2 5 6
0.031846 0.0040352 0.0040352 2 5 6
0.03181 0.004006 0.004006 2 5 6
0.031775 0.0039769 0.0039769 2 5 6
0.03174 0.0039479 0.0039479 2 5 6
0.031706 0.003919 0.003919 2 5 6
0.031671 0.0038902 0.0038902 2 5 6
0.031636 0.0038616 0.0038616 2 5 6
0.031602 0.003833 0.003833 2 5 6
0.031567 0.0038045 0.0038045 2 5 6
