0.05502 0.02019 0.02019 2 2 3
0.055012 0.020179 0.020179 2 2 3
0.055004 0.020168 0.020168 2 2 3
0.054997 0.020156 0.020156 2 2 3
0.054989 0.020145 0.020145 2 2 3
0.054981 0.020133 0.020133 2 2 3
0.054974 0.020122 0.020122 2 2 3
0.054966 0.020111 0.020111 2 2 3
0.054958 0.020099 0.020099 2 2 3
0.05495 0.020088 0.020088 2 2 3
0.054942 0.020077 0.020077 2 2 3
0.054935 0.020066 0.020066 2 2 3
0.054927 0.020054 0.020054 2 2 3
0.054919 0.020043 0.020043 2 2 3
0.054911 0.020032 0.020032 2 2 3
0.054904 0.02002 0.02002 2 2 3
0.054896 0.020009 0.020009 2 2 3
0.054888 0.019998 0.019998 2 2 3
0.05488 0.019987 0.019987 2 2 3
0.054872 0.019975 0.019975 2 2 3
0.054865 0.019964 0.019964 2 2 3
0.054857 0.019953 0.019953 2 2 3
0.054849 0.019941 0.019941 2 2 3
0.054842 0.01993 0.01993 2 2 3
0.054834 0.019919 0.019919 2 2 3
0.054826 0.019908 0.019908 2 2 3
0.054818 0.019896 0.019896 2 2 3
0.05481 0.019885 0.019885 2 2 3
0.054803 0.019874 0.019874 2 2 3
0.054795 0.019863 0.019863 2 2 3
0.054787 0.019852 0.019852 2 2 3
0.054779 0.01984 0.01984 2 2 3
0.054772 0.019829 0.019829 2 2 3
0.054764 0.019818 0.019818 2 2 3
0.054756 0.019807 0.019807 2 2 3
0.054748 0.019795 0.019795 2 2 3
0.054741 0.019784 0.019784 2 2 3
0.054733 0.019773 0.019773 2 2 3
0.054725 0.019762 0.019762 2 2 3
0.054717 0.019751 0.019751 2 2 3
0.05471 0.01974 0.01974 2 2 3
0.054702 0.019728 0.019728 2 2 3
0.054694 0.019717 0.019717 2 2 3
0.054686 0.019706 0.019706 2 2 3
0.054679 0.019695 0.019695 2 2 3
0.054671 0.019684 0.019684 2 2 3
0.054663 0.019672 0.019672 2 2 3
0.054655 0.019661 0.019661 2 2 3
0.054648 0.01965 0.01965 2 2 3
0.05464 0.019639 0.019639 2 2 3
0.054632 0.019628 0.019628 2 2 3
0.054624 0.019617 0.019617 2 2 3
0.054616 0.019606 0.019606 2 2 3
0.054609 0.019595 0.019595 2 2 3
0.054601 0.019583 0.019583 2 2 3
0.054593 0.019572 0.019572 2 2 3
0.054586 0.019561 0.019561 2 2 3
0.054578 0.01955 0.01955 2 2 3
0.05457 0.019539 0.019539 2 2 3
0.054562 0.019528 0.019528 2 2 3
0.054554 0.019517 0.019517 2 2 3
0.054547 0.019506 0.019506 2 2 3
0.054539 0.019495 0.019495 2 2 3
0.054531 0.019484 0.019484 2 2 3
0.054524 0.019472 0.019472 2 2 3
0.054516 0.019461 0.019461 2 2 3
0.054508 0.01945 0.01945 2 2 3
0.0545 0.019439 0.019439 2 2 3
0.054492 0.019428 0.019428 2 2 3
0.054485 0.019417 0.019417 2 2 3
0.054477 0.019406 0.019406 2 2 3
0.054469 0.019395 0.019395 2 2 3
0.054462 0.019384 0.019384 2 2 3
0.054454 0.019373 0.019373 2 2 3
0.054446 0.019362 0.019362 2 2 3
0.054438 0.019351 0.019351 2 2 3
0.05443 0.01934 0.01934 2 2 3
0.054423 0.019329 0.019329 2 2 3
0.054415 0.019318 0.019318 2 2 3
0.054407 0.019307 0.019307 2 2 3
0.0544 0.019296 0.019296 2 2 3
0.054392 0.019285 0.019285 2 2 3
0.054384 0.019274 0.019274 2 2 3
0.054376 0.019263 0.019263 2 2 3
0.054369 0.019252 0.019252 2 2 3
0.054361 0.019241 0.019241 2 2 3
0.054353 0.01923 0.01923 2 2 3
0.054345 0.019219 0.019219 2 2 3
0.054338 0.019208 0.019208 2 2 3
0.05433 0.019197 0.019197 2 2 3
0.054322 0.019186 0.019186 2 2 3
0.054314 0.019175 0.019175 2 2 3
0.054307 0.019164 0.019164 2 2 3
0.054299 0.019153 0.019153 2 2 3
0.054291 0.019142 0.019142 2 2 3
0.054283 0.019131 0.019131 2 2 3
0.054276 0.01912 0.01912 2 2 3
0.054268 0.01911 0.01911 2 2 3
0.05426 0.019099 0.019099 2 2 3
0.054253 0.019088 0.019088 2 2 3
0.054245 0.019077 0.019077 2 2 3
0.054237 0.019066 0.019066 2 2 3
0.054229 0.019055 0.019055 2 2 3
0.054221 0.019044 0.019044 2 2 3
0.054214 0.019033 0.019033 2 2 3
0.054206 0.019022 0.019022 2 2 3
0.054198 0.019011 0.019011 2 2 3
0.054191 0.019 0.019 2 2 3
0.054183 0.018989 0.018989 2 2 3
0.054175 0.018979 0.018979 2 2 3
0.054167 0.018968 0.018968 2 2 3
0.05416 0.018957 0.018957 2 2 3
0.054152 0.018946 0.018946 2 2 3
0.054144 0.018935 0.018935 2 2 3
0.054136 0.018924 0.018924 2 2 3
0.054129 0.018913 0.018913 2 2 3
0.054121 0.018903 0.018903 2 2 3
0.054113 0.018892 0.018892 2 2 3
0.054106 0.018881 0.018881 2 2 3
0.054098 0.01887 0.01887 2 2 3
0.05409 0.018859 0.018859 2 2 3
0.054082 0.018848 0.018848 2 2 3
0.054075 0.018838 0.018838 2 2 3
0.054067 0.018827 0.018827 2 2 3
0.054059 0.018816 0.018816 2 2 3
0.054051 0.018805 0.018805 2 2 3
0.054044 0.018794 0.018794 2 2 3
0.054036 0.018784 0.018784 2 2 3
0.054028 0.018773 0.018773 2 2 3
0.05402 0.018762 0.018762 2 2 3
0.054013 0.018751 0.018751 2 2 3
0.054005 0.01874 0.01874 2 2 3
0.053997 0.01873 0.01873 2 2 3
0.05399 0.018719 0.018719 2 2 3
0.053982 0.018708 0.018708 2 2 3
0.053974 0.018697 0.018697 2 2 3
0.053966 0.018687 0.018687 2 2 3
0.053959 0.018676 0.018676 2 2 3
0.053951 0.018665 0.018665 2 2 3
0.053943 0.018654 0.018654 2 2 3
0.053936 0.018644 0.018644 2 2 3
0.053928 0.018633 0.018633 2 2 3
0.05392 0.018622 0.018622 2 2 3
0.053912 0.018611 0.018611 2 2 3
0.053905 0.018601 0.018601 2 2 3
0.053897 0.01859 0.01859 2 2 3
0.053889 0.018579 0.018579 2 2 3
0.053881 0.018569 0.018569 2 2 3
0.053874 0.018558 0.018558 2 2 3
0.053866 0.018547 0.018547 2 2 3
0.053858 0.018536 0.018536 2 2 3
0.053851 0.018526 0.018526 2 2 3
0.053843 0.018515 0.018515 2 2 3
0.053835 0.018504 0.018504 2 2 3
0.053828 0.018494 0.018494 2 2 3
0.05382 0.018483 0.018483 2 2 3
0.053812 0.018472 0.018472 2 2 3
0.053804 0.018461 0.018461 2 2 3
0.053797 0.018451 0.018451 2 2 3
0.053789 0.01844 0.01844 2 2 3
0.053781 0.01843 0.01843 2 2 3
0.053774 0.018419 0.018419 2 2 3
0.053766 0.018408 0.018408 2 2 3
0.053758 0.018398 0.018398 2 2 3
0.05375 0.018387 0.018387 2 2 3
0.053743 0.018376 0.018376 2 2 3
0.053735 0.018366 0.018366 2 2 3
0.053727 0.018355 0.018355 2 2 3
0.05372 0.018344 0.018344 2 2 3
0.053712 0.018334 0.018334 2 2 3
0.053704 0.018323 0.018323 2 2 3
0.053696 0.018313 0.018313 2 2 3
0.053689 0.018302 0.018302 2 2 3
0.053681 0.018291 0.018291 2 2 3
0.053673 0.018281 0.018281 2 2 3
0.053666 0.01827 0.01827 2 2 3
0.053658 0.01826 0.01826 2 2 3
0.05365 0.018249 0.018249 2 2 3
0.053643 0.018238 0.018238 2 2 3
0.053635 0.018228 0.018228 2 2 3
0.053627 0.018217 0.018217 2 2 3
0.053619 0.018207 0.018207 2 2 3
0.053612 0.018196 0.018196 2 2 3
0.053604 0.018186 0.018186 2 2 3
0.053596 0.018175 0.018175 2 2 3
0.053589 0.018164 0.018164 2 2 3
0.053581 0.018154 0.018154 2 2 3
0.053573 0.018143 0.018143 2 2 3
0.053566 0.018133 0.018133 2 2 3
0.053558 0.018122 0.018122 2 2 3
0.05355 0.018112 0.018112 2 2 3
0.053542 0.018101 0.018101 2 2 3
0.053535 0.018091 0.018091 2 2 3
0.053527 0.01808 0.01808 2 2 3
0.053519 0.01807 0.01807 2 2 3
0.053512 0.018059 0.018059 2 2 3
0.053504 0.018049 0.018049 2 2 3
0.053496 0.018038 0.018038 2 2 3
0.053489 0.018028 0.018028 2 2 3
0.053481 0.018017 0.018017 2 2 3
0.053473 0.018007 0.018007 2 2 3
0.053465 0.017996 0.017996 2 2 3
0.053458 0.017986 0.017986 2 2 3
0.05345 0.017975 0.017975 2 2 3
0.053442 0.017965 0.017965 2 2 3
0.053435 0.017954 0.017954 2 2 3
0.053427 0.017944 0.017944 2 2 3
0.053419 0.017933 0.017933 2 2 3
0.053412 0.017923 0.017923 2 2 3
0.053404 0.017912 0.017912 2 2 3
0.053396 0.017902 0.017902 2 2 3
0.053388 0.017891 0.017891 2 2 3
0.053381 0.017881 0.017881 2 2 3
0.053373 0.017871 0.017871 2 2 3
0.053366 0.01786 0.01786 2 2 3
0.053358 0.01785 0.01785 2 2 3
0.05335 0.017839 0.017839 2 2 3
0.053342 0.017829 0.017829 2 2 3
0.053335 0.017818 0.017818 2 2 3
0.053327 0.017808 0.017808 2 2 3
0.053319 0.017798 0.017798 2 2 3
0.053312 0.017787 0.017787 2 2 3
0.053304 0.017777 0.017777 2 2 3
0.053296 0.017766 0.017766 2 2 3
0.053289 0.017756 0.017756 2 2 3
0.053281 0.017746 0.017746 2 2 3
0.053273 0.017735 0.017735 2 2 3
0.053266 0.017725 0.017725 2 2 3
0.053258 0.017714 0.017714 2 2 3
0.05325 0.017704 0.017704 2 2 3
0.053243 0.017694 0.017694 2 2 3
0.053235 0.017683 0.017683 2 2 3
0.053227 0.017673 0.017673 2 2 3
0.05322 0.017663 0.017663 2 2 3
0.053212 0.017652 0.017652 2 2 3
0.053204 0.017642 0.017642 2 2 3
0.053197 0.017632 0.017632 2 2 3
0.053189 0.017621 0.017621 2 2 3
0.053181 0.017611 0.017611 2 2 3
0.053173 0.017601 0.017601 2 2 3
0.053166 0.01759 0.01759 2 2 3
0.053158 0.01758 0.01758 2 2 3
0.053151 0.01757 0.01757 2 2 3
0.053143 0.017559 0.017559 2 2 3
0.053135 0.017549 0.017549 2 2 3
0.053128 0.017539 0.017539 2 2 3
0.05312 0.017528 0.017528 2 2 3
0.053112 0.017518 0.017518 2 2 3
0.053104 0.017508 0.017508 2 2 3
0.053097 0.017497 0.017497 2 2 3
0.053089 0.017487 0.017487 2 2 3
0.053081 0.017477 0.017477 2 2 3
0.053074 0.017467 0.017467 2 2 3
0.053066 0.017456 0.017456 2 2 3
0.053059 0.017446 0.017446 2 2 3
0.053051 0.017436 0.017436 2 2 3
0.053043 0.017426 0.017426 2 2 3
0.053035 0.017415 0.017415 2 2 3
0.053028 0.017405 0.017405 2 2 3
0.05302 0.017395 0.017395 2 2 3
0.053013 0.017385 0.017385 2 2 3
0.053005 0.017374 0.017374 2 2 3
0.052997 0.017364 0.017364 2 2 3
0.05299 0.017354 0.017354 2 2 3
0.052982 0.017344 0.017344 2 2 3
0.052974 0.017333 0.017333 2 2 3
0.052967 0.017323 0.017323 2 2 3
0.052959 0.017313 0.017313 2 2 3
0.052951 0.017303 0.017303 2 2 3
0.052944 0.017292 0.017292 2 2 3
0.052936 0.017282 0.017282 2 2 3
0.052928 0.017272 0.017272 2 2 3
0.052921 0.017262 0.017262 2 2 3
0.052913 0.017252 0.017252 2 2 3
0.052905 0.017241 0.017241 2 2 3
0.052898 0.017231 0.017231 2 2 3
0.05289 0.017221 0.017221 2 2 3
0.052882 0.017211 0.017211 2 2 3
0.052875 0.017201 0.017201 2 2 3
0.052867 0.017191 0.017191 2 2 3
0.052859 0.01718 0.01718 2 2 3
0.052852 0.01717 0.01717 2 2 3
0.052844 0.01716 0.01716 2 2 3
0.052837 0.01715 0.01715 2 2 3
0.052829 0.01714 0.01714 2 2 3
0.052821 0.01713 0.01713 2 2 3
0.052814 0.017119 0.017119 2 2 3
0.052806 0.017109 0.017109 2 2 3
0.052798 0.017099 0.017099 2 2 3
0.052791 0.017089 0.017089 2 2 3
0.052783 0.017079 0.017079 2 2 3
0.052775 0.017069 0.017069 2 2 3
0.052768 0.017059 0.017059 2 2 3
0.05276 0.017049 0.017049 2 2 3
0.052753 0.017038 0.017038 2 2 3
0.052745 0.017028 0.017028 2 2 3
0.052737 0.017018 0.017018 2 2 3
0.05273 0.017008 0.017008 2 2 3
0.052722 0.016998 0.016998 2 2 3
0.052714 0.016988 0.016988 2 2 3
0.052707 0.016978 0.016978 2 2 3
0.052699 0.016968 0.016968 2 2 3
0.052692 0.016958 0.016958 2 2 3
0.052684 0.016948 0.016948 2 2 3
0.052676 0.016938 0.016938 2 2 3
0.052669 0.016927 0.016927 2 2 3
0.052661 0.016917 0.016917 2 2 3
0.052653 0.016907 0.016907 2 2 3
0.052646 0.016897 0.016897 2 2 3
0.052638 0.016887 0.016887 2 2 3
0.05263 0.016877 0.016877 2 2 3
0.052623 0.016867 0.016867 2 2 3
0.052615 0.016857 0.016857 2 2 3
0.052608 0.016847 0.016847 2 2 3
0.0526 0.016837 0.016837 2 2 3
0.052592 0.016827 0.016827 2 2 3
0.052585 0.016817 0.016817 2 2 3
0.052577 0.016807 0.016807 2 2 3
0.052569 0.016797 0.016797 2 2 3
0.052562 0.016787 0.016787 2 2 3
0.052554 0.016777 0.016777 2 2 3
0.052547 0.016767 0.016767 2 2 3
0.052539 0.016757 0.016757 2 2 3
0.052531 0.016747 0.016747 2 2 3
0.052524 0.016737 0.016737 2 2 3
0.052516 0.016727 0.016727 2 2 3
0.052508 0.016717 0.016717 2 2 3
0.052501 0.016707 0.016707 2 2 3
0.052493 0.016697 0.016697 2 2 3
0.052486 0.016687 0.016687 2 2 3
0.052478 0.016677 0.016677 2 2 3
0.05247 0.016667 0.016667 2 2 3
0.052463 0.016657 0.016657 2 2 3
0.052455 0.016647 0.016647 2 2 3
0.052448 0.016637 0.016637 2 2 3
0.05244 0.016627 0.016627 2 2 3
0.052432 0.016617 0.016617 2 2 3
0.052425 0.016607 0.016607 2 2 3
0.052417 0.016597 0.016597 2 2 3
0.052409 0.016587 0.016587 2 2 3
0.052402 0.016577 0.016577 2 2 3
0.052394 0.016567 0.016567 2 2 3
0.052387 0.016557 0.016557 2 2 3
0.052379 0.016548 0.016548 2 2 3
0.052372 0.016538 0.016538 2 2 3
0.052364 0.016528 0.016528 2 2 3
0.052356 0.016518 0.016518 2 2 3
0.052349 0.016508 0.016508 2 2 3
0.052341 0.016498 0.016498 2 2 3
0.052333 0.016488 0.016488 2 2 3
0.052326 0.016478 0.016478 2 2 3
0.052318 0.016468 0.016468 2 2 3
0.052311 0.016459 0.016459 2 2 3
0.052303 0.016449 0.016449 2 2 3
0.052296 0.016439 0.016439 2 2 3
0.052288 0.016429 0.016429 2 2 3
0.05228 0.016419 0.016419 2 2 3
0.052273 0.016409 0.016409 2 2 3
0.052265 0.016399 0.016399 2 2 3
0.052257 0.016389 0.016389 2 2 3
0.05225 0.01638 0.01638 2 2 3
0.052242 0.01637 0.01637 2 2 3
0.052235 0.01636 0.01636 2 2 3
0.052227 0.01635 0.01635 2 2 3
0.05222 0.01634 0.01634 2 2 3
0.052212 0.01633 0.01633 2 2 3
0.052204 0.016321 0.016321 2 2 3
0.052197 0.016311 0.016311 2 2 3
0.052189 0.016301 0.016301 2 2 3
0.052182 0.016291 0.016291 2 2 3
0.052174 0.016281 0.016281 2 2 3
0.052166 0.016271 0.016271 2 2 3
0.052159 0.016262 0.016262 2 2 3
0.052151 0.016252 0.016252 2 2 3
0.052144 0.016242 0.016242 2 2 3
0.052136 0.016232 0.016232 2 2 3
0.052129 0.016222 0.016222 2 2 3
0.052121 0.016213 0.016213 2 2 3
0.052113 0.016203 0.016203 2 2 3
0.052106 0.016193 0.016193 2 2 3
0.052098 0.016183 0.016183 2 2 3
0.052091 0.016173 0.016173 2 2 3
0.052083 0.016164 0.016164 2 2 3
0.052075 0.016154 0.016154 2 2 3
0.052068 0.016144 0.016144 2 2 3
0.05206 0.016134 0.016134 2 2 3
0.052053 0.016125 0.016125 2 2 3
0.052045 0.016115 0.016115 2 2 3
0.052038 0.016105 0.016105 2 2 3
0.05203 0.016095 0.016095 2 2 3
0.052022 0.016086 0.016086 2 2 3
0.052015 0.016076 0.016076 2 2 3
0.052007 0.016066 0.016066 2 2 3
0.052 0.016056 0.016056 2 2 3
0.051992 0.016047 0.016047 2 2 3
0.051985 0.016037 0.016037 2 2 3
0.051977 0.016027 0.016027 2 2 3
0.05197 0.016018 0.016018 2 2 3
0.051962 0.016008 0.016008 2 2 3
0.051954 0.015998 0.015998 2 2 3
0.051947 0.015988 0.015988 2 2 3
0.051939 0.015979 0.015979 2 2 3
0.051932 0.015969 0.015969 2 2 3
0.051924 0.015959 0.015959 2 2 3
0.051916 0.015949 0.015949 2 2 3
0.051909 0.01594 0.01594 2 2 3
0.051901 0.01593 0.01593 2 2 3
0.051894 0.015921 0.015921 2 2 3
0.051886 0.015911 0.015911 2 2 3
0.051879 0.015901 0.015901 2 2 3
0.051871 0.015891 0.015891 2 2 3
0.051864 0.015882 0.015882 2 2 3
0.051856 0.015872 0.015872 2 2 3
0.051848 0.015863 0.015863 2 2 3
0.051841 0.015853 0.015853 2 2 3
0.051833 0.015843 0.015843 2 2 3
0.051826 0.015834 0.015834 2 2 3
0.051818 0.015824 0.015824 2 2 3
0.051811 0.015814 0.015814 2 2 3
0.051803 0.015805 0.015805 2 2 3
0.051796 0.015795 0.015795 2 2 3
0.051788 0.015785 0.015785 2 2 3
0.051781 0.015776 0.015776 2 2 3
0.051773 0.015766 0.015766 2 2 3
0.051765 0.015756 0.015756 2 2 3
0.051758 0.015747 0.015747 2 2 3
0.05175 0.015737 0.015737 2 2 3
0.051743 0.015728 0.015728 2 2 3
0.051735 0.015718 0.015718 2 2 3
0.051728 0.015709 0.015709 2 2 3
0.05172 0.015699 0.015699 2 2 3
0.051713 0.015689 0.015689 2 2 3
0.051705 0.01568 0.01568 2 2 3
0.051698 0.01567 0.01567 2 2 3
0.05169 0.015661 0.015661 2 2 3
0.051682 0.015651 0.015651 2 2 3
0.051675 0.015641 0.015641 2 2 3
0.051667 0.015632 0.015632 2 2 3
0.05166 0.015622 0.015622 2 2 3
0.051652 0.015613 0.015613 2 2 3
0.051645 0.015603 0.015603 2 2 3
0.051637 0.015594 0.015594 2 2 3
0.05163 0.015584 0.015584 2 2 3
0.051622 0.015574 0.015574 2 2 3
0.051615 0.015565 0.015565 2 2 3
0.051607 0.015555 0.015555 2 2 3
0.0516 0.015546 0.015546 2 2 3
0.051592 0.015536 0.015536 2 2 3
0.051585 0.015527 0.015527 2 2 3
0.051577 0.015517 0.015517 2 2 3
0.05157 0.015508 0.015508 2 2 3
0.051562 0.015498 0.015498 2 2 3
0.051555 0.015489 0.015489 2 2 3
0.051547 0.015479 0.015479 2 2 3
0.05154 0.01547 0.01547 2 2 3
0.051532 0.01546 0.01546 2 2 3
0.051524 0.015451 0.015451 2 2 3
0.051517 0.015441 0.015441 2 2 3
0.051509 0.015432 0.015432 2 2 3
0.051502 0.015422 0.015422 2 2 3
0.051494 0.015413 0.015413 2 2 3
0.051487 0.015403 0.015403 2 2 3
0.051479 0.015394 0.015394 2 2 3
0.051472 0.015384 0.015384 2 2 3
0.051464 0.015375 0.015375 2 2 3
0.051457 0.015365 0.015365 2 2 3
0.051449 0.015356 0.015356 2 2 3
0.051442 0.015346 0.015346 2 2 3
0.051434 0.015337 0.015337 2 2 3
0.051427 0.015328 0.015328 2 2 3
0.051419 0.015318 0.015318 2 2 3
0.051412 0.015309 0.015309 2 2 3
0.051404 0.015299 0.015299 2 2 3
0.051397 0.01529 0.01529 2 2 3
0.051389 0.01528 0.01528 2 2 3
0.051382 0.015271 0.015271 2 2 3
0.051374 0.015261 0.015261 2 2 3
0.051367 0.015252 0.015252 2 2 3
0.051359 0.015243 0.015243 2 2 3
0.051352 0.015233 0.015233 2 2 3
0.051344 0.015224 0.015224 2 2 3
0.051337 0.015214 0.015214 2 2 3
0.051329 0.015205 0.015205 2 2 3
0.051322 0.015196 0.015196 2 2 3
0.051314 0.015186 0.015186 2 2 3
0.051307 0.015177 0.015177 2 2 3
0.051299 0.015167 0.015167 2 2 3
0.051292 0.015158 0.015158 2 2 3
0.051284 0.015149 0.015149 2 2 3
0.051277 0.015139 0.015139 2 2 3
0.051269 0.01513 0.01513 2 2 3
0.051262 0.015121 0.015121 2 2 3
0.051254 0.015111 0.015111 2 2 3
0.051247 0.015102 0.015102 2 2 3
0.051239 0.015092 0.015092 2 2 3
0.051232 0.015083 0.015083 2 2 3
0.051224 0.015074 0.015074 2 2 3
0.051217 0.015064 0.015064 2 2 3
0.051209 0.015055 0.015055 2 2 3
0.051202 0.015046 0.015046 2 2 3
0.051194 0.015036 0.015036 2 2 3
0.051187 0.015027 0.015027 2 2 3
0.051179 0.015018 0.015018 2 2 3
0.051172 0.015008 0.015008 2 2 3
0.051164 0.014999 0.014999 2 2 3
0.051157 0.01499 0.01499 2 2 3
0.05115 0.01498 0.01498 2 2 3
0.051142 0.014971 0.014971 2 2 3
0.051134 0.014962 0.014962 2 2 3
0.051127 0.014952 0.014952 2 2 3
0.05112 0.014943 0.014943 2 2 3
0.051112 0.014934 0.014934 2 2 3
0.051105 0.014924 0.014924 2 2 3
0.051097 0.014915 0.014915 2 2 3
0.05109 0.014906 0.014906 2 2 3
0.051082 0.014897 0.014897 2 2 3
0.051075 0.014887 0.014887 2 2 3
0.051067 0.014878 0.014878 2 2 3
0.05106 0.014869 0.014869 2 2 3
0.051052 0.014859 0.014859 2 2 3
0.051045 0.01485 0.01485 2 2 3
0.051037 0.014841 0.014841 2 2 3
0.05103 0.014832 0.014832 2 2 3
0.051022 0.014822 0.014822 2 2 3
0.051015 0.014813 0.014813 2 2 3
0.051007 0.014804 0.014804 2 2 3
0.051 0.014795 0.014795 2 2 3
0.050993 0.014785 0.014785 2 2 3
0.050985 0.014776 0.014776 2 2 3
0.050978 0.014767 0.014767 2 2 3
0.05097 0.014758 0.014758 2 2 3
0.050963 0.014748 0.014748 2 2 3
0.050955 0.014739 0.014739 2 2 3
0.050948 0.01473 0.01473 2 2 3
0.05094 0.014721 0.014721 2 2 3
0.050933 0.014712 0.014712 2 2 3
0.050925 0.014702 0.014702 2 2 3
0.050918 0.014693 0.014693 2 2 3
0.050911 0.014684 0.014684 2 2 3
0.050903 0.014675 0.014675 2 2 3
0.050896 0.014665 0.014665 2 2 3
0.050888 0.014656 0.014656 2 2 3
0.050881 0.014647 0.014647 2 2 3
0.050873 0.014638 0.014638 2 2 3
0.050866 0.014629 0.014629 2 2 3
0.050859 0.01462 0.01462 2 2 3
0.050851 0.01461 0.01461 2 2 3
0.050844 0.014601 0.014601 2 2 3
0.050836 0.014592 0.014592 2 2 3
0.050829 0.014583 0.014583 2 2 3
0.050821 0.014574 0.014574 2 2 3
0.050814 0.014564 0.014564 2 2 3
0.050806 0.014555 0.014555 2 2 3
0.050799 0.014546 0.014546 2 2 3
0.050792 0.014537 0.014537 2 2 3
0.050784 0.014528 0.014528 2 2 3
0.050777 0.014519 0.014519 2 2 3
0.050769 0.01451 0.01451 2 2 3
0.050762 0.0145 0.0145 2 2 3
0.050754 0.014491 0.014491 2 2 3
0.050747 0.014482 0.014482 2 2 3
0.050739 0.014473 0.014473 2 2 3
0.050732 0.014464 0.014464 2 2 3
0.050725 0.014455 0.014455 2 2 3
0.050717 0.014446 0.014446 2 2 3
0.05071 0.014437 0.014437 2 2 3
0.050702 0.014427 0.014427 2 2 3
0.050695 0.014418 0.014418 2 2 3
0.050687 0.014409 0.014409 2 2 3
0.05068 0.0144 0.0144 2 2 3
0.050673 0.014391 0.014391 2 2 3
0.050665 0.014382 0.014382 2 2 3
0.050658 0.014373 0.014373 2 2 3
0.05065 0.014364 0.014364 2 2 3
0.050643 0.014355 0.014355 2 2 3
0.050635 0.014346 0.014346 2 2 3
0.050628 0.014337 0.014337 2 2 3
0.050621 0.014327 0.014327 2 2 3
0.050613 0.014318 0.014318 2 2 3
0.050606 0.014309 0.014309 2 2 3
0.050598 0.0143 0.0143 2 2 3
0.050591 0.014291 0.014291 2 2 3
0.050584 0.014282 0.014282 2 2 3
0.050576 0.014273 0.014273 2 2 3
0.050569 0.014264 0.014264 2 2 3
0.050561 0.014255 0.014255 2 2 3
0.050554 0.014246 0.014246 2 2 3
0.050547 0.014237 0.014237 2 2 3
0.050539 0.014228 0.014228 2 2 3
0.050532 0.014219 0.014219 2 2 3
0.050524 0.01421 0.01421 2 2 3
0.050517 0.014201 0.014201 2 2 3
0.050509 0.014192 0.014192 2 2 3
0.050502 0.014183 0.014183 2 2 3
0.050495 0.014174 0.014174 2 2 3
0.050487 0.014165 0.014165 2 2 3
0.05048 0.014156 0.014156 2 2 3
0.050472 0.014147 0.014147 2 2 3
0.050465 0.014138 0.014138 2 2 3
0.050458 0.014129 0.014129 2 2 3
0.05045 0.01412 0.01412 2 2 3
0.050443 0.014111 0.014111 2 2 3
0.050436 0.014102 0.014102 2 2 3
0.050428 0.014093 0.014093 2 2 3
0.050421 0.014084 0.014084 2 2 3
0.050413 0.014075 0.014075 2 2 3
0.050406 0.014066 0.014066 2 2 3
0.050399 0.014057 0.014057 2 2 3
0.050391 0.014048 0.014048 2 2 3
0.050384 0.014039 0.014039 2 2 3
0.050376 0.01403 0.01403 2 2 3
0.050369 0.014021 0.014021 2 2 3
0.050362 0.014012 0.014012 2 2 3
0.050354 0.014003 0.014003 2 2 3
0.050347 0.013994 0.013994 2 2 3
0.05034 0.013985 0.013985 2 2 3
0.050332 0.013976 0.013976 2 2 3
0.050325 0.013967 0.013967 2 2 3
0.050317 0.013959 0.013959 2 2 3
0.05031 0.01395 0.01395 2 2 3
0.050303 0.013941 0.013941 2 2 3
0.050295 0.013932 0.013932 2 2 3
0.050288 0.013923 0.013923 2 2 3
0.05028 0.013914 0.013914 2 2 3
0.050273 0.013905 0.013905 2 2 3
0.050266 0.013896 0.013896 2 2 3
0.050258 0.013887 0.013887 2 2 3
0.050251 0.013878 0.013878 2 2 3
0.050244 0.013869 0.013869 2 2 3
0.050236 0.01386 0.01386 2 2 3
0.050229 0.013852 0.013852 2 2 3
0.050222 0.013843 0.013843 2 2 3
0.050214 0.013834 0.013834 2 2 3
0.050207 0.013825 0.013825 2 2 3
0.050199 0.013816 0.013816 2 2 3
0.050192 0.013807 0.013807 2 2 3
0.050185 0.013798 0.013798 2 2 3
0.050177 0.013789 0.013789 2 2 3
0.05017 0.013781 0.013781 2 2 3
0.050163 0.013772 0.013772 2 2 3
0.050155 0.013763 0.013763 2 2 3
0.050148 0.013754 0.013754 2 2 3
0.05014 0.013745 0.013745 2 2 3
0.050133 0.013736 0.013736 2 2 3
0.050126 0.013727 0.013727 2 2 3
0.050118 0.013719 0.013719 2 2 3
0.050111 0.01371 0.01371 2 2 3
0.050104 0.013701 0.013701 2 2 3
0.050096 0.013692 0.013692 2 2 3
0.050089 0.013683 0.013683 2 2 3
0.050082 0.013674 0.013674 2 2 3
0.050074 0.013666 0.013666 2 2 3
0.050067 0.013657 0.013657 2 2 3
0.05006 0.013648 0.013648 2 2 3
0.050052 0.013639 0.013639 2 2 3
0.050045 0.01363 0.01363 2 2 3
0.050038 0.013621 0.013621 2 2 3
0.05003 0.013613 0.013613 2 2 3
0.050023 0.013604 0.013604 2 2 3
0.050016 0.013595 0.013595 2 2 3
0.050008 0.013586 0.013586 2 2 3
0.050001 0.013578 0.013578 2 2 3
0.049994 0.013569 0.013569 2 2 3
0.049986 0.01356 0.01356 2 2 3
0.049979 0.013551 0.013551 2 2 3
0.049972 0.013542 0.013542 2 2 3
0.049964 0.013534 0.013534 2 2 3
0.049957 0.013525 0.013525 2 2 3
0.04995 0.013516 0.013516 2 2 3
0.049942 0.013507 0.013507 2 2 3
0.049935 0.013499 0.013499 2 2 3
0.049927 0.01349 0.01349 2 2 3
0.04992 0.013481 0.013481 2 2 3
0.049913 0.013472 0.013472 2 2 3
0.049906 0.013464 0.013464 2 2 3
0.049898 0.013455 0.013455 2 2 3
0.049891 0.013446 0.013446 2 2 3
0.049884 0.013437 0.013437 2 2 3
0.049876 0.013429 0.013429 2 2 3
0.049869 0.01342 0.01342 2 2 3
0.049862 0.013411 0.013411 2 2 3
0.049854 0.013402 0.013402 2 2 3
0.049847 0.013394 0.013394 2 2 3
0.04984 0.013385 0.013385 2 2 3
0.049832 0.013376 0.013376 2 2 3
0.049825 0.013368 0.013368 2 2 3
0.049818 0.013359 0.013359 2 2 3
0.04981 0.01335 0.01335 2 2 3
0.049803 0.013341 0.013341 2 2 3
0.049796 0.013333 0.013333 2 2 3
0.049788 0.013324 0.013324 2 2 3
0.049781 0.013315 0.013315 2 2 3
0.049774 0.013307 0.013307 2 2 3
0.049766 0.013298 0.013298 2 2 3
0.049759 0.013289 0.013289 2 2 3
0.049752 0.013281 0.013281 2 2 3
0.049745 0.013272 0.013272 2 2 3
0.049737 0.013263 0.013263 2 2 3
0.04973 0.013255 0.013255 2 2 3
0.049723 0.013246 0.013246 2 2 3
0.049715 0.013237 0.013237 2 2 3
0.049708 0.013229 0.013229 2 2 3
0.049701 0.01322 0.01322 2 2 3
0.049694 0.013211 0.013211 2 2 3
0.049686 0.013203 0.013203 2 2 3
0.049679 0.013194 0.013194 2 2 3
0.049672 0.013185 0.013185 2 2 3
0.049664 0.013177 0.013177 2 2 3
0.049657 0.013168 0.013168 2 2 3
0.04965 0.013159 0.013159 2 2 3
0.049642 0.013151 0.013151 2 2 3
0.049635 0.013142 0.013142 2 2 3
0.049628 0.013134 0.013134 2 2 3
0.04962 0.013125 0.013125 2 2 3
0.049613 0.013116 0.013116 2 2 3
0.049606 0.013108 0.013108 2 2 3
0.049599 0.013099 0.013099 2 2 3
0.049591 0.01309 0.01309 2 2 3
0.049584 0.013082 0.013082 2 2 3
0.049577 0.013073 0.013073 2 2 3
0.04957 0.013065 0.013065 2 2 3
0.049562 0.013056 0.013056 2 2 3
0.049555 0.013048 0.013048 2 2 3
0.049548 0.013039 0.013039 2 2 3
0.04954 0.01303 0.01303 2 2 3
0.049533 0.013022 0.013022 2 2 3
0.049526 0.013013 0.013013 2 2 3
0.049519 0.013005 0.013005 2 2 3
0.049511 0.012996 0.012996 2 2 3
0.049504 0.012988 0.012988 2 2 3
0.049497 0.012979 0.012979 2 2 3
0.049489 0.01297 0.01297 2 2 3
0.049482 0.012962 0.012962 2 2 3
0.049475 0.012953 0.012953 2 2 3
0.049468 0.012945 0.012945 2 2 3
0.04946 0.012936 0.012936 2 2 3
0.049453 0.012928 0.012928 2 2 3
0.049446 0.012919 0.012919 2 2 3
0.049439 0.012911 0.012911 2 2 3
0.049431 0.012902 0.012902 2 2 3
0.049424 0.012893 0.012893 2 2 3
0.049417 0.012885 0.012885 2 2 3
0.04941 0.012876 0.012876 2 2 3
0.049402 0.012868 0.012868 2 2 3
0.049395 0.012859 0.012859 2 2 3
0.049388 0.012851 0.012851 2 2 3
0.049381 0.012842 0.012842 2 2 3
0.049373 0.012834 0.012834 2 2 3
0.049366 0.012825 0.012825 2 2 3
0.049359 0.012817 0.012817 2 2 3
0.049351 0.012808 0.012808 2 2 3
0.049344 0.0128 0.0128 2 2 3
0.049337 0.012791 0.012791 2 2 3
0.04933 0.012783 0.012783 2 2 3
0.049322 0.012774 0.012774 2 2 3
0.049315 0.012766 0.012766 2 2 3
0.049308 0.012757 0.012757 2 2 3
0.049301 0.012749 0.012749 2 2 3
0.049293 0.01274 0.01274 2 2 3
0.049286 0.012732 0.012732 2 2 3
0.049279 0.012723 0.012723 2 2 3
0.049272 0.012715 0.012715 2 2 3
0.049265 0.012707 0.012707 2 2 3
0.049257 0.012698 0.012698 2 2 3
0.04925 0.012689 0.012689 2 2 3
0.049243 0.012681 0.012681 2 2 3
0.049236 0.012673 0.012673 2 2 3
0.049228 0.012664 0.012664 2 2 3
0.049221 0.012656 0.012656 2 2 3
0.049214 0.012647 0.012647 2 2 3
0.049207 0.012639 0.012639 2 2 3
0.049199 0.01263 0.01263 2 2 3
0.049192 0.012622 0.012622 2 2 3
0.049185 0.012614 0.012614 2 2 3
0.049178 0.012605 0.012605 2 2 3
0.04917 0.012597 0.012597 2 2 3
0.049163 0.012588 0.012588 2 2 3
0.049156 0.01258 0.01258 2 2 3
0.049149 0.012571 0.012571 2 2 3
0.049142 0.012563 0.012563 2 2 3
0.049134 0.012555 0.012555 2 2 3
0.049127 0.012546 0.012546 2 2 3
0.04912 0.012538 0.012538 2 2 3
0.049113 0.012529 0.012529 2 2 3
0.049106 0.012521 0.012521 2 2 3
0.049098 0.012513 0.012513 2 2 3
0.049091 0.012504 0.012504 2 2 3
0.049084 0.012496 0.012496 2 2 3
0.049077 0.012488 0.012488 2 2 3
0.049069 0.012479 0.012479 2 2 3
0.049062 0.012471 0.012471 2 2 3
0.049055 0.012462 0.012462 2 2 3
0.049048 0.012454 0.012454 2 2 3
0.049041 0.012446 0.012446 2 2 3
0.049033 0.012437 0.012437 2 2 3
0.049026 0.012429 0.012429 2 2 3
0.049019 0.01242 0.01242 2 2 3
0.049012 0.012412 0.012412 2 2 3
0.049004 0.012404 0.012404 2 2 3
0.048997 0.012395 0.012395 2 2 3
0.04899 0.012387 0.012387 2 2 3
0.048983 0.012379 0.012379 2 2 3
0.048976 0.01237 0.01237 2 2 3
0.048968 0.012362 0.012362 2 2 3
0.048961 0.012354 0.012354 2 2 3
0.048954 0.012345 0.012345 2 2 3
0.048947 0.012337 0.012337 2 2 3
0.04894 0.012329 0.012329 2 2 3
0.048932 0.01232 0.01232 2 2 3
0.048925 0.012312 0.012312 2 2 3
0.048918 0.012304 0.012304 2 2 3
0.048911 0.012295 0.012295 2 2 3
0.048904 0.012287 0.012287 2 2 3
0.048897 0.012279 0.012279 2 2 3
0.048889 0.012271 0.012271 2 2 3
0.048882 0.012262 0.012262 2 2 3
0.048875 0.012254 0.012254 2 2 3
0.048868 0.012246 0.012246 2 2 3
0.048861 0.012237 0.012237 2 2 3
0.048854 0.012229 0.012229 2 2 3
0.048846 0.012221 0.012221 2 2 3
0.048839 0.012212 0.012212 2 2 3
0.048832 0.012204 0.012204 2 2 3
0.048825 0.012196 0.012196 2 2 3
0.048818 0.012188 0.012188 2 2 3
0.04881 0.012179 0.012179 2 2 3
0.048803 0.012171 0.012171 2 2 3
0.048796 0.012163 0.012163 2 2 3
0.048789 0.012155 0.012155 2 2 3
0.048782 0.012146 0.012146 2 2 3
0.048774 0.012138 0.012138 2 2 3
0.048767 0.01213 0.01213 2 2 3
0.04876 0.012122 0.012122 2 2 3
0.048753 0.012113 0.012113 2 2 3
0.048746 0.012105 0.012105 2 2 3
0.048739 0.012097 0.012097 2 2 3
0.048731 0.012089 0.012089 2 2 3
0.048724 0.01208 0.01208 2 2 3
0.048717 0.012072 0.012072 2 2 3
0.04871 0.012064 0.012064 2 2 3
0.048703 0.012056 0.012056 2 2 3
0.048696 0.012047 0.012047 2 2 3
0.048689 0.012039 0.012039 2 2 3
0.048681 0.012031 0.012031 2 2 3
0.048674 0.012023 0.012023 2 2 3
0.048667 0.012015 0.012015 2 2 3
0.04866 0.012006 0.012006 2 2 3
0.048653 0.011998 0.011998 2 2 3
0.048646 0.01199 0.01199 2 2 3
0.048638 0.011982 0.011982 2 2 3
0.048631 0.011974 0.011974 2 2 3
0.048624 0.011966 0.011966 2 2 3
0.048617 0.011957 0.011957 2 2 3
0.04861 0.011949 0.011949 2 2 3
0.048603 0.011941 0.011941 2 2 3
0.048595 0.011933 0.011933 2 2 3
0.048588 0.011924 0.011924 2 2 3
0.048581 0.011916 0.011916 2 2 3
0.048574 0.011908 0.011908 2 2 3
0.048567 0.0119 0.0119 2 2 3
0.04856 0.011892 0.011892 2 2 3
0.048553 0.011884 0.011884 2 2 3
0.048546 0.011876 0.011876 2 2 3
0.048538 0.011867 0.011867 2 2 3
0.048531 0.011859 0.011859 2 2 3
0.048524 0.011851 0.011851 2 2 3
0.048517 0.011843 0.011843 2 2 3
0.04851 0.011835 0.011835 2 2 3
0.048503 0.011827 0.011827 2 2 3
0.048496 0.011818 0.011818 2 2 3
0.048488 0.01181 0.01181 2 2 3
0.048481 0.011802 0.011802 2 2 3
0.048474 0.011794 0.011794 2 2 3
0.048467 0.011786 0.011786 2 2 3
0.04846 0.011778 0.011778 2 2 3
0.048453 0.01177 0.01177 2 2 3
0.048446 0.011762 0.011762 2 2 3
0.048439 0.011754 0.011754 2 2 3
0.048432 0.011745 0.011745 2 2 3
0.048424 0.011737 0.011737 2 2 3
0.048417 0.011729 0.011729 2 2 3
0.04841 0.011721 0.011721 2 2 3
0.048403 0.011713 0.011713 2 2 3
0.048396 0.011705 0.011705 2 2 3
0.048389 0.011697 0.011697 2 2 3
0.048382 0.011689 0.011689 2 2 3
0.048375 0.011681 0.011681 2 2 3
0.048367 0.011673 0.011673 2 2 3
0.04836 0.011664 0.011664 2 2 3
0.048353 0.011656 0.011656 2 2 3
0.048346 0.011648 0.011648 2 2 3
0.048339 0.01164 0.01164 2 2 3
0.048332 0.011632 0.011632 2 2 3
0.048325 0.011624 0.011624 2 2 3
0.048318 0.011616 0.011616 2 2 3
0.04831 0.011608 0.011608 2 2 3
0.048303 0.0116 0.0116 2 2 3
0.048296 0.011592 0.011592 2 2 3
0.048289 0.011584 0.011584 2 2 3
0.048282 0.011576 0.011576 2 2 3
0.048275 0.011568 0.011568 2 2 3
0.048268 0.01156 0.01156 2 2 3
0.048261 0.011552 0.011552 2 2 3
0.048254 0.011544 0.011544 2 2 3
0.048247 0.011536 0.011536 2 2 3
0.04824 0.011527 0.011527 2 2 3
0.048232 0.01152 0.01152 2 2 3
0.048225 0.011511 0.011511 2 2 3
0.048218 0.011503 0.011503 2 2 3
0.048211 0.011495 0.011495 2 2 3
0.048204 0.011487 0.011487 2 2 3
0.048197 0.011479 0.011479 2 2 3
0.04819 0.011471 0.011471 2 2 3
0.048183 0.011463 0.011463 2 2 3
0.048176 0.011455 0.011455 2 2 3
0.048169 0.011447 0.011447 2 2 3
0.048162 0.011439 0.011439 2 2 3
0.048155 0.011431 0.011431 2 2 3
0.048147 0.011423 0.011423 2 2 3
0.04814 0.011415 0.011415 2 2 3
0.048133 0.011407 0.011407 2 2 3
0.048126 0.011399 0.011399 2 2 3
0.048119 0.011391 0.011391 2 2 3
0.048112 0.011383 0.011383 2 2 3
0.048105 0.011376 0.011376 2 2 3
0.048098 0.011367 0.011367 2 2 3
0.048091 0.011359 0.011359 2 2 3
0.048084 0.011352 0.011352 2 2 3
0.048077 0.011344 0.011344 2 2 3
0.04807 0.011336 0.011336 2 2 3
0.048063 0.011328 0.011328 2 2 3
0.048056 0.01132 0.01132 2 2 3
0.048048 0.011312 0.011312 2 2 3
0.048041 0.011304 0.011304 2 2 3
0.048034 0.011296 0.011296 2 2 3
0.048027 0.011288 0.011288 2 2 3
0.04802 0.01128 0.01128 2 2 3
0.048013 0.011272 0.011272 2 2 3
0.048006 0.011264 0.011264 2 2 3
0.047999 0.011256 0.011256 2 2 3
0.047992 0.011248 0.011248 2 2 3
0.047985 0.01124 0.01124 2 2 3
0.047978 0.011232 0.011232 2 2 3
0.047971 0.011225 0.011225 2 2 3
0.047964 0.011217 0.011217 2 2 3
0.047957 0.011209 0.011209 2 2 3
0.04795 0.011201 0.011201 2 2 3
0.047943 0.011193 0.011193 2 2 3
0.047935 0.011185 0.011185 2 2 3
0.047928 0.011177 0.011177 2 2 3
0.047921 0.011169 0.011169 2 2 3
0.047914 0.011161 0.011161 2 2 3
0.047907 0.011153 0.011153 2 2 3
0.0479 0.011145 0.011145 2 2 3
0.047893 0.011137 0.011137 2 2 3
0.047886 0.01113 0.01113 2 2 3
0.047879 0.011122 0.011122 2 2 3
0.047872 0.011114 0.011114 2 2 3
0.047865 0.011106 0.011106 2 2 3
0.047858 0.011098 0.011098 2 2 3
0.047851 0.01109 0.01109 2 2 3
0.047844 0.011082 0.011082 2 2 3
0.047837 0.011074 0.011074 2 2 3
0.04783 0.011067 0.011067 2 2 3
0.047823 0.011059 0.011059 2 2 3
0.047816 0.011051 0.011051 2 2 3
0.047809 0.011043 0.011043 2 2 3
0.047802 0.011035 0.011035 2 2 3
0.047795 0.011027 0.011027 2 2 3
0.047788 0.011019 0.011019 2 2 3
0.047781 0.011012 0.011012 2 2 3
0.047774 0.011004 0.011004 2 2 3
0.047767 0.010996 0.010996 2 2 3
0.04776 0.010988 0.010988 2 2 3
0.047753 0.01098 0.01098 2 2 3
0.047746 0.010972 0.010972 2 2 3
0.047739 0.010965 0.010965 2 2 3
0.047732 0.010957 0.010957 2 2 3
0.047725 0.010949 0.010949 2 2 3
0.047718 0.010941 0.010941 2 2 3
0.047711 0.010933 0.010933 2 2 3
0.047704 0.010926 0.010926 2 2 3
0.047697 0.010918 0.010918 2 2 3
0.04769 0.01091 0.01091 2 2 3
0.047683 0.010902 0.010902 2 2 3
0.047676 0.010894 0.010894 2 2 3
0.047669 0.010887 0.010887 2 2 3
0.047662 0.010879 0.010879 2 2 3
0.047655 0.010871 0.010871 2 2 3
0.047648 0.010863 0.010863 2 2 3
0.047641 0.010855 0.010855 2 2 3
0.047634 0.010848 0.010848 2 2 3
0.047627 0.01084 0.01084 2 2 3
0.04762 0.010832 0.010832 2 2 3
0.047613 0.010824 0.010824 2 2 3
0.047606 0.010816 0.010816 2 2 3
0.047599 0.010809 0.010809 2 2 3
0.047592 0.010801 0.010801 2 2 3
0.047585 0.010793 0.010793 2 2 3
0.047578 0.010785 0.010785 2 2 3
0.047571 0.010778 0.010778 2 2 3
0.047564 0.01077 0.01077 2 2 3
0.047557 0.010762 0.010762 2 2 3
0.04755 0.010754 0.010754 2 2 3
0.047543 0.010747 0.010747 2 2 3
0.047536 0.010739 0.010739 2 2 3
0.047529 0.010731 0.010731 2 2 3
0.047522 0.010724 0.010724 2 2 3
0.047515 0.010716 0.010716 2 2 3
0.047508 0.010708 0.010708 2 2 3
0.047501 0.0107 0.0107 2 2 3
0.047494 0.010693 0.010693 2 2 3
0.047487 0.010685 0.010685 2 2 3
0.04748 0.010677 0.010677 2 2 3
0.047473 0.010669 0.010669 2 2 3
0.047466 0.010662 0.010662 2 2 3
0.047459 0.010654 0.010654 2 2 3
0.047452 0.010646 0.010646 2 2 3
0.047445 0.010639 0.010639 2 2 3
0.047438 0.010631 0.010631 2 2 3
0.047431 0.010623 0.010623 2 2 3
0.047424 0.010615 0.010615 2 2 3
0.047417 0.010608 0.010608 2 2 3
0.04741 0.0106 0.0106 2 2 3
0.047403 0.010592 0.010592 2 2 3
0.047396 0.010585 0.010585 2 2 3
0.047389 0.010577 0.010577 2 2 3
0.047382 0.010569 0.010569 2 2 3
0.047375 0.010562 0.010562 2 2 3
0.047368 0.010554 0.010554 2 2 3
0.047361 0.010546 0.010546 2 2 3
0.047354 0.010538 0.010538 2 2 3
0.047347 0.010531 0.010531 2 2 3
0.04734 0.010523 0.010523 2 2 3
0.047333 0.010516 0.010516 2 2 3
0.047326 0.010508 0.010508 2 2 3
0.04732 0.0105 0.0105 2 2 3
0.047313 0.010493 0.010493 2 2 3
0.047306 0.010485 0.010485 2 2 3
0.047299 0.010477 0.010477 2 2 3
0.047292 0.01047 0.01047 2 2 3
0.047285 0.010462 0.010462 2 2 3
0.047278 0.010454 0.010454 2 2 3
0.047271 0.010447 0.010447 2 2 3
0.047264 0.010439 0.010439 2 2 3
0.047257 0.010431 0.010431 2 2 3
0.04725 0.010424 0.010424 2 2 3
0.047243 0.010416 0.010416 2 2 3
0.047236 0.010408 0.010408 2 2 3
0.047229 0.010401 0.010401 2 2 3
0.047222 0.010393 0.010393 2 2 3
0.047215 0.010386 0.010386 2 2 3
0.047208 0.010378 0.010378 2 2 3
0.047201 0.01037 0.01037 2 2 3
0.047195 0.010363 0.010363 2 2 3
0.047188 0.010355 0.010355 2 2 3
0.047181 0.010348 0.010348 2 2 3
0.047174 0.01034 0.01034 2 2 3
0.047167 0.010332 0.010332 2 2 3
0.04716 0.010325 0.010325 2 2 3
0.047153 0.010317 0.010317 2 2 3
0.047146 0.01031 0.01031 2 2 3
0.047139 0.010302 0.010302 2 2 3
0.047132 0.010294 0.010294 2 2 3
0.047125 0.010287 0.010287 2 2 3
0.047118 0.010279 0.010279 2 2 3
0.047111 0.010272 0.010272 2 2 3
0.047105 0.010264 0.010264 2 2 3
0.047098 0.010257 0.010257 2 2 3
0.047091 0.010249 0.010249 2 2 3
0.047084 0.010241 0.010241 2 2 3
0.047077 0.010234 0.010234 2 2 3
0.04707 0.010226 0.010226 2 2 3
0.047063 0.010219 0.010219 2 2 3
0.047056 0.010211 0.010211 2 2 3
0.047049 0.010204 0.010204 2 2 3
0.047042 0.010196 0.010196 2 2 3
0.047035 0.010189 0.010189 2 2 3
0.047028 0.010181 0.010181 2 2 3
0.047022 0.010174 0.010174 2 2 3
0.047015 0.010166 0.010166 2 2 3
0.047008 0.010158 0.010158 2 2 3
0.047001 0.010151 0.010151 2 2 3
0.046994 0.010143 0.010143 2 2 3
0.046987 0.010136 0.010136 2 2 3
0.04698 0.010128 0.010128 2 2 3
0.046973 0.010121 0.010121 2 2 3
0.046966 0.010113 0.010113 2 2 3
0.046959 0.010106 0.010106 2 2 3
0.046953 0.010098 0.010098 2 2 3
0.046946 0.010091 0.010091 2 2 3
0.046939 0.010083 0.010083 2 2 3
0.046932 0.010076 0.010076 2 2 3
0.046925 0.010068 0.010068 2 2 3
0.046918 0.010061 0.010061 2 2 3
0.046911 0.010053 0.010053 2 2 3
0.046904 0.010046 0.010046 2 2 3
0.046897 0.010038 0.010038 2 2 3
0.046891 0.010031 0.010031 2 2 3
0.046884 0.010023 0.010023 2 2 3
0.046877 0.010016 0.010016 2 2 3
0.04687 0.010008 0.010008 2 2 3
0.046863 0.010001 0.010001 2 2 3
0.046856 0.0099933 0.0099933 2 2 3
0.046849 0.0099858 0.0099858 2 2 3
0.046842 0.0099783 0.0099783 2 2 3
0.046836 0.0099709 0.0099709 2 2 3
0.046829 0.0099634 0.0099634 2 2 3
0.046822 0.0099559 0.0099559 2 2 3
0.046815 0.0099485 0.0099485 2 2 3
0.046808 0.009941 0.009941 2 2 3
0.046801 0.0099335 0.0099335 2 2 3
0.046794 0.0099261 0.0099261 2 2 3
0.046787 0.0099186 0.0099186 2 2 3
0.046781 0.0099112 0.0099112 2 2 3
0.046774 0.0099038 0.0099038 2 2 3
0.046767 0.0098963 0.0098963 2 2 3
0.04676 0.0098889 0.0098889 2 2 3
0.046753 0.0098814 0.0098814 2 2 3
0.046746 0.009874 0.009874 2 2 3
0.046739 0.0098666 0.0098666 2 2 3
0.046733 0.0098591 0.0098591 2 2 3
0.046726 0.0098517 0.0098517 2 2 3
0.046719 0.0098443 0.0098443 2 2 3
0.046712 0.0098369 0.0098369 2 2 3
0.046705 0.0098294 0.0098294 2 2 3
0.046698 0.009822 0.009822 2 2 3
0.046691 0.0098146 0.0098146 2 2 3
0.046684 0.0098072 0.0098072 2 2 3
0.046678 0.0097998 0.0097998 2 2 3
0.046671 0.0097924 0.0097924 2 2 3
0.046664 0.009785 0.009785 2 2 3
0.046657 0.0097776 0.0097776 2 2 3
0.04665 0.0097702 0.0097702 2 2 3
0.046643 0.0097628 0.0097628 2 2 3
0.046636 0.0097554 0.0097554 2 2 3
0.04663 0.009748 0.009748 2 2 3
0.046623 0.0097406 0.0097406 2 2 3
0.046616 0.0097332 0.0097332 2 2 3
0.046609 0.0097259 0.0097259 2 2 3
0.046602 0.0097185 0.0097185 2 2 3
0.046595 0.0097111 0.0097111 2 2 3
0.046589 0.0097037 0.0097037 2 2 3
0.046582 0.0096964 0.0096964 2 2 3
0.046575 0.009689 0.009689 2 2 3
0.046568 0.0096816 0.0096816 2 2 3
0.046561 0.0096743 0.0096743 2 2 3
0.046554 0.0096669 0.0096669 2 2 3
0.046548 0.0096595 0.0096595 2 2 3
0.046541 0.0096522 0.0096522 2 2 3
0.046534 0.0096448 0.0096448 2 2 3
0.046527 0.0096375 0.0096375 2 2 3
0.04652 0.0096301 0.0096301 2 2 3
0.046513 0.0096228 0.0096228 2 2 3
0.046507 0.0096154 0.0096154 2 2 3
0.0465 0.0096081 0.0096081 2 2 3
0.046493 0.0096008 0.0096008 2 2 3
0.046486 0.0095934 0.0095934 2 2 3
0.046479 0.0095861 0.0095861 2 2 3
0.046473 0.0095788 0.0095788 2 2 3
0.046466 0.0095715 0.0095715 2 2 3
0.046459 0.0095641 0.0095641 2 2 3
0.046452 0.0095568 0.0095568 2 2 3
0.046445 0.0095495 0.0095495 2 2 3
0.046439 0.0095422 0.0095422 2 2 3
0.046432 0.0095348 0.0095348 2 2 3
0.046425 0.0095275 0.0095275 2 2 3
0.046418 0.0095202 0.0095202 2 2 3
0.046411 0.0095129 0.0095129 2 2 3
0.046405 0.0095056 0.0095056 2 2 3
0.046398 0.0094983 0.0094983 2 2 3
0.046391 0.009491 0.009491 2 2 3
0.046384 0.0094837 0.0094837 2 2 3
0.046377 0.0094764 0.0094764 2 2 3
0.046371 0.0094691 0.0094691 2 2 3
0.046364 0.0094619 0.0094619 2 2 3
0.046357 0.0094546 0.0094546 2 2 3
0.04635 0.0094473 0.0094473 2 2 3
0.046343 0.00944 0.00944 2 2 3
0.046337 0.0094327 0.0094327 2 2 3
0.04633 0.0094255 0.0094255 2 2 3
0.046323 0.0094182 0.0094182 2 2 3
0.046316 0.0094109 0.0094109 2 2 3
0.046309 0.0094036 0.0094036 2 2 3
0.046303 0.0093964 0.0093964 2 2 3
0.046296 0.0093891 0.0093891 2 2 3
0.046289 0.0093819 0.0093819 2 2 3
0.046282 0.0093746 0.0093746 2 2 3
0.046275 0.0093673 0.0093673 2 2 3
0.046269 0.0093601 0.0093601 2 2 3
0.046262 0.0093528 0.0093528 2 2 3
0.046255 0.0093456 0.0093456 2 2 3
0.046248 0.0093384 0.0093384 2 2 3
0.046241 0.0093311 0.0093311 2 2 3
0.046235 0.0093239 0.0093239 2 2 3
0.046228 0.0093166 0.0093166 2 2 3
0.046221 0.0093094 0.0093094 2 2 3
0.046214 0.0093022 0.0093022 2 2 3
0.046208 0.0092949 0.0092949 2 2 3
0.046201 0.0092877 0.0092877 2 2 3
0.046194 0.0092805 0.0092805 2 2 3
0.046187 0.0092733 0.0092733 2 2 3
0.04618 0.009266 0.009266 2 2 3
0.046174 0.0092588 0.0092588 2 2 3
0.046167 0.0092516 0.0092516 2 2 3
0.04616 0.0092444 0.0092444 2 2 3
0.046153 0.0092372 0.0092372 2 2 3
0.046147 0.00923 0.00923 2 2 3
0.04614 0.0092228 0.0092228 2 2 3
0.046133 0.0092156 0.0092156 2 2 3
0.046126 0.0092084 0.0092084 2 2 3
0.04612 0.0092012 0.0092012 2 2 3
0.046113 0.009194 0.009194 2 2 3
0.046106 0.0091868 0.0091868 2 2 3
0.046099 0.0091796 0.0091796 2 2 3
0.046093 0.0091724 0.0091724 2 2 3
0.046086 0.0091652 0.0091652 2 2 3
0.046079 0.0091581 0.0091581 2 2 3
0.046072 0.0091509 0.0091509 2 2 3
0.046066 0.0091437 0.0091437 2 2 3
0.046059 0.0091365 0.0091365 2 2 3
0.046052 0.0091294 0.0091294 2 2 3
0.046045 0.0091222 0.0091222 2 2 3
0.046039 0.009115 0.009115 2 2 3
0.046032 0.0091079 0.0091079 2 2 3
0.046025 0.0091007 0.0091007 2 2 3
0.046018 0.0090936 0.0090936 2 2 3
0.046012 0.0090864 0.0090864 2 2 3
0.046005 0.0090793 0.0090793 2 2 3
0.045998 0.0090721 0.0090721 2 2 3
0.045991 0.009065 0.009065 2 2 3
0.045985 0.0090578 0.0090578 2 2 3
0.045978 0.0090507 0.0090507 2 2 3
0.045971 0.0090435 0.0090435 2 2 3
0.045964 0.0090364 0.0090364 2 2 3
0.045958 0.0090293 0.0090293 2 2 3
0.045951 0.0090221 0.0090221 2 2 3
0.045944 0.009015 0.009015 2 2 3
0.045938 0.0090079 0.0090079 2 2 3
0.045931 0.0090007 0.0090007 2 2 3
0.045924 0.0089936 0.0089936 2 2 3
0.045917 0.0089865 0.0089865 2 2 3
0.045911 0.0089794 0.0089794 2 2 3
0.045904 0.0089723 0.0089723 2 2 3
0.045897 0.0089651 0.0089651 2 2 3
0.045891 0.008958 0.008958 2 2 3
0.045884 0.0089509 0.0089509 2 2 3
0.045877 0.0089438 0.0089438 2 2 3
0.04587 0.0089367 0.0089367 2 2 3
0.045864 0.0089296 0.0089296 2 2 3
0.045857 0.0089225 0.0089225 2 2 3
0.04585 0.0089154 0.0089154 2 2 3
0.045844 0.0089083 0.0089083 2 2 3
0.045837 0.0089012 0.0089012 2 2 3
0.04583 0.0088942 0.0088942 2 2 3
0.045823 0.0088871 0.0088871 2 2 3
0.045817 0.00888 0.00888 2 2 3
0.04581 0.0088729 0.0088729 2 2 3
0.045803 0.0088658 0.0088658 2 2 3
0.045796 0.0088588 0.0088588 2 2 3
0.04579 0.0088517 0.0088517 2 2 3
0.045783 0.0088446 0.0088446 2 2 3
0.045776 0.0088375 0.0088375 2 2 3
0.04577 0.0088305 0.0088305 2 2 3
0.045763 0.0088234 0.0088234 2 2 3
0.045756 0.0088164 0.0088164 2 2 3
0.04575 0.0088093 0.0088093 2 2 3
0.045743 0.0088022 0.0088022 2 2 3
0.045736 0.0087952 0.0087952 2 2 3
0.045729 0.0087881 0.0087881 2 2 3
0.045723 0.0087811 0.0087811 2 2 3
0.045716 0.0087741 0.0087741 2 2 3
0.045709 0.008767 0.008767 2 2 3
0.045703 0.00876 0.00876 2 2 3
0.045696 0.0087529 0.0087529 2 2 3
0.045689 0.0087459 0.0087459 2 2 3
0.045683 0.0087389 0.0087389 2 2 3
0.045676 0.0087318 0.0087318 2 2 3
0.045669 0.0087248 0.0087248 2 2 3
0.045663 0.0087178 0.0087178 2 2 3
0.045656 0.0087107 0.0087107 2 2 3
0.045649 0.0087037 0.0087037 2 2 3
0.045643 0.0086967 0.0086967 2 2 3
0.045636 0.0086897 0.0086897 2 2 3
0.045629 0.0086827 0.0086827 2 2 3
0.045623 0.0086757 0.0086757 2 2 3
0.045616 0.0086687 0.0086687 2 2 3
0.045609 0.0086616 0.0086616 2 2 3
0.045602 0.0086546 0.0086546 2 2 3
0.045596 0.0086476 0.0086476 2 2 3
0.045589 0.0086406 0.0086406 2 2 3
0.045582 0.0086336 0.0086336 2 2 3
0.045576 0.0086267 0.0086267 2 2 3
0.045569 0.0086197 0.0086197 2 2 3
0.045562 0.0086127 0.0086127 2 2 3
0.045556 0.0086057 0.0086057 2 2 3
0.045549 0.0085987 0.0085987 2 2 3
0.045542 0.0085917 0.0085917 2 2 3
0.045536 0.0085848 0.0085848 2 2 3
0.045529 0.0085778 0.0085778 2 2 3
0.045523 0.0085708 0.0085708 2 2 3
0.045516 0.0085638 0.0085638 2 2 3
0.045509 0.0085569 0.0085569 2 2 3
0.045503 0.0085499 0.0085499 2 2 3
0.045496 0.0085429 0.0085429 2 2 3
0.045489 0.008536 0.008536 2 2 3
0.045483 0.008529 0.008529 2 2 3
0.045476 0.008522 0.008522 2 2 3
0.045469 0.0085151 0.0085151 2 2 3
0.045463 0.0085081 0.0085081 2 2 3
0.045456 0.0085012 0.0085012 2 2 3
0.045449 0.0084942 0.0084942 2 2 3
0.045443 0.0084873 0.0084873 2 2 3
0.045436 0.0084803 0.0084803 2 2 3
0.045429 0.0084734 0.0084734 2 2 3
0.045423 0.0084665 0.0084665 2 2 3
0.045416 0.0084595 0.0084595 2 2 3
0.045409 0.0084526 0.0084526 2 2 3
0.045403 0.0084457 0.0084457 2 2 3
0.045396 0.0084388 0.0084388 2 2 3
0.04539 0.0084318 0.0084318 2 2 3
0.045383 0.0084249 0.0084249 2 2 3
0.045376 0.008418 0.008418 2 2 3
0.04537 0.0084111 0.0084111 2 2 3
0.045363 0.0084042 0.0084042 2 2 3
0.045356 0.0083972 0.0083972 2 2 3
0.04535 0.0083903 0.0083903 2 2 3
0.045343 0.0083834 0.0083834 2 2 3
0.045337 0.0083765 0.0083765 2 2 3
0.04533 0.0083696 0.0083696 2 2 3
0.045323 0.0083627 0.0083627 2 2 3
0.045317 0.0083558 0.0083558 2 2 3
0.04531 0.0083489 0.0083489 2 2 3
0.045303 0.008342 0.008342 2 2 3
0.045297 0.0083351 0.0083351 2 2 3
0.04529 0.0083282 0.0083282 2 2 3
0.045284 0.0083213 0.0083213 2 2 3
0.045277 0.0083145 0.0083145 2 2 3
0.04527 0.0083076 0.0083076 2 2 3
0.045264 0.0083007 0.0083007 2 2 3
0.045257 0.0082938 0.0082938 2 2 3
0.04525 0.0082869 0.0082869 2 2 3
0.045244 0.0082801 0.0082801 2 2 3
0.045237 0.0082732 0.0082732 2 2 3
0.045231 0.0082663 0.0082663 2 2 3
0.045224 0.0082595 0.0082595 2 2 3
0.045217 0.0082526 0.0082526 2 2 3
0.045211 0.0082457 0.0082457 2 2 3
0.045204 0.0082389 0.0082389 2 2 3
0.045198 0.008232 0.008232 2 2 3
0.045191 0.0082252 0.0082252 2 2 3
0.045184 0.0082183 0.0082183 2 2 3
0.045178 0.0082115 0.0082115 2 2 3
0.045171 0.0082046 0.0082046 2 2 3
0.045165 0.0081978 0.0081978 2 2 3
0.045158 0.0081909 0.0081909 2 2 3
0.045151 0.0081841 0.0081841 2 2 3
0.045145 0.0081773 0.0081773 2 2 3
0.045138 0.0081704 0.0081704 2 2 3
0.045132 0.0081636 0.0081636 2 2 3
0.045125 0.0081568 0.0081568 2 2 3
0.045118 0.0081499 0.0081499 2 2 3
0.045112 0.0081431 0.0081431 2 2 3
0.045105 0.0081363 0.0081363 2 2 3
0.045099 0.0081295 0.0081295 2 2 3
0.045092 0.0081227 0.0081227 2 2 3
0.045086 0.0081158 0.0081158 2 2 3
0.045079 0.008109 0.008109 2 2 3
0.045072 0.0081022 0.0081022 2 2 3
0.045066 0.0080954 0.0080954 2 2 3
0.045059 0.0080886 0.0080886 2 2 3
0.045053 0.0080818 0.0080818 2 2 3
0.045046 0.008075 0.008075 2 2 3
0.04504 0.0080682 0.0080682 2 2 3
0.045033 0.0080614 0.0080614 2 2 3
0.045026 0.0080546 0.0080546 2 2 3
0.04502 0.0080478 0.0080478 2 2 3
0.045013 0.008041 0.008041 2 2 3
0.045007 0.0080342 0.0080342 2 2 3
0.045 0.0080275 0.0080275 2 2 3
0.044993 0.0080207 0.0080207 2 2 3
0.044987 0.0080139 0.0080139 2 2 3
0.04498 0.0080071 0.0080071 2 2 3
0.044974 0.0080003 0.0080003 2 2 3
0.044967 0.0079936 0.0079936 2 2 3
0.044961 0.0079868 0.0079868 2 2 3
0.044954 0.00798 0.00798 2 2 3
0.044948 0.0079733 0.0079733 2 2 3
0.044941 0.0079665 0.0079665 2 2 3
0.044934 0.0079597 0.0079597 2 2 3
0.044928 0.007953 0.007953 2 2 3
0.044921 0.0079462 0.0079462 2 2 3
0.044915 0.0079395 0.0079395 2 2 3
0.044908 0.0079327 0.0079327 2 2 3
0.044902 0.007926 0.007926 2 2 3
0.044895 0.0079192 0.0079192 2 2 3
0.044888 0.0079125 0.0079125 2 2 3
0.044882 0.0079057 0.0079057 2 2 3
0.044875 0.007899 0.007899 2 2 3
0.044869 0.0078922 0.0078922 2 2 3
0.044862 0.0078855 0.0078855 2 2 3
0.044856 0.0078788 0.0078788 2 2 3
0.044849 0.0078721 0.0078721 2 2 3
0.044843 0.0078653 0.0078653 2 2 3
0.044836 0.0078586 0.0078586 2 2 3
0.04483 0.0078519 0.0078519 2 2 3
0.044823 0.0078452 0.0078452 2 2 3
0.044817 0.0078384 0.0078384 2 2 3
0.04481 0.0078317 0.0078317 2 2 3
0.044804 0.007825 0.007825 2 2 3
0.044797 0.0078183 0.0078183 2 2 3
0.04479 0.0078116 0.0078116 2 2 3
0.044784 0.0078049 0.0078049 2 2 3
0.044777 0.0077982 0.0077982 2 2 3
0.044771 0.0077915 0.0077915 2 2 3
0.044764 0.0077848 0.0077848 2 2 3
0.044758 0.0077781 0.0077781 2 2 3
0.044751 0.0077714 0.0077714 2 2 3
0.044745 0.0077647 0.0077647 2 2 3
0.044738 0.007758 0.007758 2 2 3
0.044732 0.0077513 0.0077513 2 2 3
0.044725 0.0077446 0.0077446 2 2 3
0.044719 0.0077379 0.0077379 2 2 3
0.044712 0.0077312 0.0077312 2 2 3
0.044706 0.0077246 0.0077246 2 2 3
0.044699 0.0077179 0.0077179 2 2 3
0.044693 0.0077112 0.0077112 2 2 3
0.044686 0.0077045 0.0077045 2 2 3
0.044679 0.0076979 0.0076979 2 2 3
0.044673 0.0076912 0.0076912 2 2 3
0.044666 0.0076845 0.0076845 2 2 3
0.04466 0.0076779 0.0076779 2 2 3
0.044653 0.0076712 0.0076712 2 2 3
0.044647 0.0076645 0.0076645 2 2 3
0.04464 0.0076579 0.0076579 2 2 3
0.044634 0.0076512 0.0076512 2 2 3
0.044627 0.0076446 0.0076446 2 2 3
0.044621 0.0076379 0.0076379 2 2 3
0.044614 0.0076313 0.0076313 2 2 3
0.044608 0.0076246 0.0076246 2 2 3
0.044601 0.007618 0.007618 2 2 3
0.044595 0.0076113 0.0076113 2 2 3
0.044588 0.0076047 0.0076047 2 2 3
0.044582 0.0075981 0.0075981 2 2 3
0.044575 0.0075914 0.0075914 2 2 3
0.044569 0.0075848 0.0075848 2 2 3
0.044562 0.0075782 0.0075782 2 2 3
0.044556 0.0075715 0.0075715 2 2 3
