0.064993 0.046826 0.046826 2 4 2
0.065009 0.047184 0.047184 2 4 2
0.065022 0.04754 0.04754 2 4 2
0.065031 0.047896 0.047896 2 4 2
0.065037 0.04825 0.04825 2 4 2
0.06504 0.048603 0.048603 2 4 2
0.06504 0.048955 0.048955 2 4 2
0.065036 0.049305 0.049305 2 4 2
0.065029 0.049653 0.049653 2 4 2
0.065018 0.05 0.05 2 4 2
0.065005 0.050345 0.050345 2 4 2
0.064988 0.050688 0.050688 2 4 2
0.064968 0.05103 0.05103 2 4 2
0.064946 0.05137 0.05137 2 4 2
0.06492 0.051708 0.051708 2 4 2
0.064891 0.052045 0.052045 2 4 2
0.064859 0.052379 0.052379 2 4 2
0.064824 0.052711 0.052711 2 4 2
0.064787 0.053042 0.053042 2 4 2
0.064746 0.05337 0.05337 2 4 2
0.064703 0.053696 0.053696 2 4 2
0.064657 0.05402 0.05402 2 4 2
0.064609 0.054343 0.054343 2 4 2
0.064558 0.054662 0.054662 2 4 2
0.064504 0.05498 0.05498 2 4 2
0.064448 0.055295 0.055295 2 4 2
0.064389 0.055609 0.055609 2 4 2
0.064327 0.05592 0.05592 2 4 2
0.064264 0.056228 0.056228 2 4 2
0.064198 0.056534 0.056534 2 4 2
0.06413 0.056838 0.056838 2 4 2
0.064059 0.05714 0.05714 2 4 2
0.063986 0.057439 0.057439 2 4 2
0.063912 0.057736 0.057736 2 4 2
0.063835 0.05803 0.05803 2 4 2
0.063756 0.058322 0.058322 2 4 2
0.063675 0.058611 0.058611 2 4 2
0.063592 0.058898 0.058898 2 4 2
0.063507 0.059182 0.059182 2 4 2
0.063421 0.059464 0.059464 2 4 2
0.063333 0.059744 0.059744 2 4 2
0.063243 0.060021 0.060021 2 4 2
0.063151 0.060295 0.060295 2 4 2
0.063058 0.060567 0.060567 2 4 2
0.062963 0.060837 0.060837 2 4 2
0.062867 0.061103 0.061103 2 4 2
0.062769 0.061368 0.061368 2 4 2
0.06267 0.061629 0.061629 2 4 2
0.062569 0.061889 0.061889 2 4 2
0.062467 0.062145 0.062145 2 4 2
0.062364 0.062399 0.062399 2 4 2
0.062259 0.062651 0.062651 2 4 2
0.062154 0.0629 0.0629 2 4 2
0.062047 0.063146 0.063146 2 4 2
0.061939 0.063389 0.063389 2 4 2
0.061831 0.063629 0.063629 2 4 2
0.061723 0.063863 0.063863 2 4 2
0.061621 0.064082 0.064082 2 4 2
0.061582 0.064163 0.064163 2 4 2
0.061566 0.064197 0.064197 2 4 2
0.061566 0.064198 0.064198 2 4 2
0.061574 0.064181 0.064181 2 4 2
0.061589 0.06415 0.06415 2 4 2
0.061611 0.064104 0.064104 2 4 2
0.06164 0.064043 0.064043 2 4 2
0.061678 0.063964 0.063964 2 4 2
0.061726 0.063864 0.063864 2 4 2
0.061785 0.063739 0.063739 2 4 2
0.061859 0.063586 0.063586 2 4 2
0.061941 0.063411 0.063411 2 4 2
0.062031 0.06322 0.06322 2 4 2
0.062128 0.063014 0.063014 2 4 2
0.062231 0.062794 0.062794 2 4 2
0.06234 0.06256 0.06256 2 4 2
0.062455 0.062313 0.062313 2 4 2
0.062574 0.062054 0.062054 2 4 2
0.062697 0.061783 0.061783 2 4 2
0.062825 0.061501 0.061501 2 4 2
0.062957 0.061209 0.061209 2 4 2
0.063093 0.060907 0.060907 2 4 2
0.063231 0.060594 0.060594 2 4 2
0.063373 0.060273 0.060273 2 4 2
0.063517 0.059942 0.059942 2 4 2
0.063664 0.059603 0.059603 2 4 2
0.063814 0.059256 0.059256 2 4 2
0.063965 0.0589 0.0589 2 4 2
0.064118 0.058536 0.058536 2 4 2
0.064273 0.058165 0.058165 2 4 2
0.064429 0.057785 0.057785 2 4 2
0.064587 0.057399 0.057399 2 4 2
0.064746 0.057005 0.057005 2 4 2
0.064905 0.056604 0.056604 2 4 2
0.065066 0.056196 0.056196 2 4 2
0.065227 0.055781 0.055781 2 4 2
0.065388 0.055359 0.055359 2 4 2
0.065549 0.054931 0.054931 2 4 2
0.065711 0.054496 0.054496 2 4 2
0.065872 0.054055 0.054055 2 4 2
0.066033 0.053608 0.053608 2 4 2
0.066193 0.053155 0.053155 2 4 2
0.066351 0.052697 0.052697 2 4 2
0.066509 0.052234 0.052234 2 4 2
0.066666 0.051765 0.051765 2 4 2
0.06682 0.051293 0.051293 2 4 2
0.066972 0.050818 0.050818 2 4 2
0.067122 0.050339 0.050339 2 4 2
0.067269 0.049859 0.049859 2 4 2
0.067413 0.049378 0.049378 2 4 2
0.067553 0.048897 0.048897 2 4 2
0.067689 0.048418 0.048418 2 4 2
0.067821 0.047942 0.047942 2 4 2
0.067947 0.04747 0.04747 2 4 2
0.06807 0.047003 0.047003 2 4 2
0.068186 0.046544 0.046544 2 4 2
0.068298 0.046092 0.046092 2 4 2
0.068404 0.045651 0.045651 2 4 2
0.068504 0.04522 0.04522 2 4 2
0.068599 0.0448 0.0448 2 4 2
0.068689 0.044392 0.044392 2 4 2
0.068773 0.043996 0.043996 2 4 2
0.068852 0.043613 0.043613 2 4 2
0.068926 0.043243 0.043243 2 4 2
0.068996 0.042886 0.042886 2 4 2
0.069061 0.04254 0.04254 2 4 2
0.069123 0.042207 0.042207 2 4 2
0.06918 0.041886 0.041886 2 4 2
0.069234 0.041576 0.041576 2 4 2
0.069284 0.041277 0.041277 2 4 2
0.069332 0.040988 0.040988 2 4 2
0.069376 0.04071 0.04071 2 4 2
0.069418 0.040441 0.040441 2 4 2
0.069458 0.040181 0.040181 2 4 2
0.069495 0.039931 0.039931 2 4 2
0.06953 0.039688 0.039688 2 4 2
0.069563 0.039453 0.039453 2 4 2
0.069595 0.039226 0.039226 2 4 2
0.069624 0.039006 0.039006 2 4 2
0.069652 0.038793 0.038793 2 4 2
0.069678 0.038587 0.038587 2 4 2
0.069704 0.038387 0.038387 2 4 2
0.069727 0.038192 0.038192 2 4 2
0.06975 0.038004 0.038004 2 4 2
0.069771 0.03782 0.03782 2 4 2
0.069792 0.037642 0.037642 2 4 2
0.069811 0.037469 0.037469 2 4 2
0.06983 0.037301 0.037301 2 4 2
0.069847 0.037137 0.037137 2 4 2
0.069864 0.036977 0.036977 2 4 2
0.06988 0.036822 0.036822 2 4 2
0.069895 0.03667 0.03667 2 4 2
0.06991 0.036522 0.036522 2 4 2
0.069924 0.036378 0.036378 2 4 2
0.069937 0.036237 0.036237 2 4 2
0.06995 0.0361 0.0361 2 4 2
0.069962 0.035966 0.035966 2 4 2
0.069973 0.035835 0.035835 2 4 2
0.069985 0.035707 0.035707 2 4 2
0.069995 0.035582 0.035582 2 4 2
0.070006 0.035459 0.035459 2 4 2
0.070015 0.035339 0.035339 2 4 2
0.070025 0.035222 0.035222 2 4 2
0.070034 0.035107 0.035107 2 4 2
0.070043 0.034994 0.034994 2 4 2
0.070051 0.034883 0.034883 2 4 2
0.070059 0.034775 0.034775 2 4 2
0.070067 0.034669 0.034669 2 4 2
0.070074 0.034564 0.034564 2 4 2
0.070081 0.034462 0.034462 2 4 2
0.070088 0.034361 0.034361 2 4 2
0.070094 0.034263 0.034263 2 4 2
0.070101 0.034165 0.034165 2 4 2
0.070107 0.03407 0.03407 2 4 2
0.070112 0.033976 0.033976 2 4 2
0.070118 0.033883 0.033883 2 4 2
0.070123 0.033792 0.033792 2 4 2
0.070128 0.033702 0.033702 2 4 2
0.070133 0.033614 0.033614 2 4 2
0.070138 0.033526 0.033526 2 4 2
0.070142 0.03344 0.03344 2 4 2
0.070147 0.033355 0.033355 2 4 2
0.070151 0.033271 0.033271 2 4 2
0.070155 0.033188 0.033188 2 4 2
0.070158 0.033106 0.033106 2 4 2
0.070162 0.033025 0.033025 2 4 2
0.070165 0.032945 0.032945 2 4 2
0.070169 0.032866 0.032866 2 4 2
0.070172 0.032787 0.032787 2 4 2
0.070175 0.032709 0.032709 2 4 2
0.070177 0.032632 0.032632 2 4 2
0.07018 0.032555 0.032555 2 4 2
0.070182 0.032478 0.032478 2 4 2
0.070184 0.032403 0.032403 2 4 2
0.070187 0.032327 0.032327 2 4 2
0.070189 0.032252 0.032252 2 4 2
0.07019 0.032177 0.032177 2 4 2
0.070192 0.032102 0.032102 2 4 2
0.070193 0.032028 0.032028 2 4 2
0.070195 0.031954 0.031954 2 4 2
0.070196 0.03188 0.03188 2 4 2
0.070196 0.031805 0.031805 2 4 2
0.070197 0.031731 0.031731 2 4 2
0.070198 0.031656 0.031656 2 4 2
0.070198 0.031582 0.031582 2 4 2
0.070198 0.031506 0.031506 2 4 2
0.070198 0.031431 0.031431 2 4 2
0.070198 0.031355 0.031355 2 4 2
0.070197 0.031278 0.031278 2 4 2
0.070196 0.031201 0.031201 2 4 2
0.070195 0.031123 0.031123 2 4 2
0.070194 0.031043 0.031043 2 4 2
0.070192 0.030963 0.030963 2 4 2
0.07019 0.030882 0.030882 2 4 2
0.070188 0.030799 0.030799 2 4 2
0.070185 0.030714 0.030714 2 4 2
0.070181 0.030628 0.030628 2 4 2
0.070178 0.03054 0.03054 2 4 2
0.070173 0.03045 0.03045 2 4 2
0.070168 0.030358 0.030358 2 4 2
0.070163 0.030263 0.030263 2 4 2
0.070156 0.030164 0.030164 2 4 2
0.070149 0.030063 0.030063 2 4 2
0.070141 0.029958 0.029958 2 4 2
0.070132 0.029849 0.029849 2 4 2
0.070121 0.029736 0.029736 2 4 2
0.070109 0.029618 0.029618 2 4 2
0.070096 0.029495 0.029495 2 4 2
0.07008 0.029366 0.029366 2 4 2
0.070063 0.029231 0.029231 2 4 2
0.070043 0.02909 0.02909 2 4 2
0.070021 0.028941 0.028941 2 4 2
0.069995 0.028785 0.028785 2 4 2
0.069966 0.028622 0.028622 2 4 2
0.069934 0.028451 0.028451 2 4 2
0.069898 0.028274 0.028274 2 4 2
0.069858 0.02809 0.02809 2 4 2
0.069813 0.027901 0.027901 2 4 2
0.069764 0.027708 0.027708 2 4 2
0.069711 0.027511 0.027511 2 4 2
0.069655 0.027312 0.027312 2 4 2
0.069594 0.027112 0.027112 2 4 2
0.06953 0.026912 0.026912 2 4 2
0.069462 0.026712 0.026712 2 4 2
0.069391 0.026512 0.026512 2 4 2
0.069317 0.026314 0.026314 2 4 2
0.06924 0.026117 0.026117 2 4 2
0.069161 0.025921 0.025921 2 4 2
0.069078 0.025726 0.025726 2 4 2
0.068993 0.025533 0.025533 2 4 2
0.068906 0.025342 0.025342 2 4 2
0.068816 0.025151 0.025151 2 4 2
0.068723 0.024962 0.024962 2 4 2
0.068628 0.024774 0.024774 2 4 2
0.068531 0.024588 0.024588 2 4 2
0.068431 0.024402 0.024402 2 4 2
0.068329 0.024217 0.024217 2 4 2
0.068224 0.024033 0.024033 2 4 2
0.068117 0.02385 0.02385 2 4 2
0.068008 0.023668 0.023668 2 4 2
0.067897 0.023487 0.023487 2 4 2
0.067783 0.023306 0.023306 2 4 2
0.067668 0.023126 0.023126 2 4 2
0.067549 0.022946 0.022946 2 4 2
0.067429 0.022767 0.022767 2 4 2
0.067306 0.022588 0.022588 2 4 2
0.067181 0.02241 0.02241 2 4 2
0.067054 0.022232 0.022232 2 4 2
0.066925 0.022054 0.022054 2 4 2
0.066793 0.021877 0.021877 2 4 2
0.066659 0.0217 0.0217 2 4 2
0.066523 0.021524 0.021524 2 4 2
0.066385 0.021347 0.021347 2 4 2
0.066244 0.021171 0.021171 2 4 2
0.066102 0.020995 0.020995 2 4 2
0.065957 0.02082 0.02082 2 4 2
0.06581 0.020644 0.020644 2 4 2
0.06566 0.020469 0.020469 2 4 2
0.065509 0.020294 0.020294 2 4 2
0.065356 0.020119 0.020119 2 4 2
0.0652 0.019944 0.019944 2 4 2
0.065042 0.019769 0.019769 2 4 2
0.064883 0.019595 0.019595 2 4 2
0.064721 0.019421 0.019421 2 4 2
0.064557 0.019247 0.019247 2 4 2
0.064391 0.019073 0.019073 2 4 2
0.064223 0.018899 0.018899 2 4 2
0.064053 0.018725 0.018725 2 4 2
0.063881 0.018552 0.018552 2 4 2
0.063707 0.018378 0.018378 2 4 2
0.063531 0.018205 0.018205 2 4 2
0.063353 0.018032 0.018032 2 4 2
0.063173 0.017859 0.017859 2 4 2
0.062992 0.017686 0.017686 2 4 2
0.062808 0.017514 0.017514 2 4 2
0.062623 0.017341 0.017341 2 4 2
0.062436 0.017169 0.017169 2 4 2
0.062247 0.016997 0.016997 2 4 2
0.062056 0.016826 0.016826 2 4 2
0.061864 0.016654 0.016654 2 4 2
0.06167 0.016483 0.016483 2 4 2
0.061474 0.016312 0.016312 2 4 2
0.061277 0.016141 0.016141 2 4 2
0.061078 0.01597 0.01597 2 4 2
0.060878 0.0158 0.0158 2 4 2
0.060676 0.01563 0.01563 2 4 2
0.060472 0.01546 0.01546 2 4 2
0.060267 0.015291 0.015291 2 4 2
0.060061 0.015122 0.015122 2 4 2
0.059853 0.014953 0.014953 2 4 2
0.059644 0.014784 0.014784 2 4 2
0.059434 0.014616 0.014616 2 4 2
0.059222 0.014448 0.014448 2 4 2
0.059009 0.014281 0.014281 2 4 2
0.058796 0.014113 0.014113 2 4 2
0.05858 0.013947 0.013947 2 4 2
0.058364 0.01378 0.01378 2 4 2
0.058147 0.013614 0.013614 2 4 2
0.057929 0.013449 0.013449 2 4 2
0.057709 0.013284 0.013284 2 4 2
0.057489 0.013119 0.013119 2 4 2
0.057268 0.012954 0.012954 2 4 2
0.057046 0.01279 0.01279 2 4 2
0.056823 0.012627 0.012627 2 4 2
0.056599 0.012464 0.012464 2 4 2
0.056375 0.012301 0.012301 2 4 2
0.05615 0.012139 0.012139 2 4 2
0.055924 0.011978 0.011978 2 4 2
0.055697 0.011817 0.011817 2 4 2
0.05547 0.011656 0.011656 2 4 2
0.055243 0.011496 0.011496 2 4 2
0.055015 0.011336 0.011336 2 4 2
0.054786 0.011177 0.011177 2 4 2
0.054558 0.011019 0.011019 2 4 2
0.054328 0.010861 0.010861 2 4 2
0.054099 0.010703 0.010703 2 4 2
0.053869 0.010547 0.010547 2 4 2
0.053638 0.01039 0.01039 2 4 2
0.053408 0.010234 0.010234 2 4 2
0.053177 0.010079 0.010079 2 4 2
0.052947 0.0099242 0.0099242 2 4 2
0.052715 0.00977 0.00977 2 4 2
0.052485 0.0096164 0.0096164 2 4 2
0.052253 0.0094633 0.0094633 2 4 2
0.052022 0.0093109 0.0093109 2 4 2
0.051791 0.009159 0.009159 2 4 2
0.05156 0.0090076 0.0090076 2 4 2
0.051329 0.0088569 0.0088569 2 4 2
0.051099 0.0087067 0.0087067 2 4 2
0.050868 0.0085572 0.0085572 2 4 2
0.050637 0.0084082 0.0084082 2 4 2
0.050407 0.0082598 0.0082598 2 4 2
0.050177 0.0081121 0.0081121 2 4 2
0.049947 0.0079649 0.0079649 2 4 2
0.049718 0.0078183 0.0078183 2 4 2
0.049489 0.0076723 0.0076723 2 4 2
0.04926 0.0075269 0.0075269 2 4 2
0.049032 0.0073821 0.0073821 2 4 2
0.048804 0.0072379 0.0072379 2 4 2
0.048577 0.0070943 0.0070943 2 4 2
0.04835 0.0069513 0.0069513 2 4 2
0.048123 0.0068089 0.0068089 2 4 2
0.047897 0.0066672 0.0066672 2 4 2
0.047672 0.006526 0.006526 2 4 2
0.047447 0.0063855 0.0063855 2 4 2
0.047223 0.0062455 0.0062455 2 4 2
0.047 0.0061062 0.0061062 2 4 2
0.046777 0.0059675 0.0059675 2 4 2
0.046555 0.0058295 0.0058295 2 4 2
0.046333 0.005692 0.005692 2 4 2
0.046113 0.0055552 0.0055552 2 4 2
0.045893 0.005419 0.005419 2 4 2
0.045674 0.0052834 0.0052834 2 4 2
0.045455 0.0051485 0.0051485 2 4 2
0.045238 0.0050142 0.0050142 2 4 2
0.045021 0.0048806 0.0048806 2 4 2
0.044806 0.0047476 0.0047476 2 4 2
0.044591 0.0046153 0.0046153 2 4 2
0.044377 0.0044836 0.0044836 2 4 2
0.044165 0.0043527 0.0043527 2 4 2
0.043953 0.0042224 0.0042224 2 4 2
0.043742 0.0040928 0.0040928 2 4 2
0.043533 0.0039639 0.0039639 2 4 2
0.043325 0.0038358 0.0038358 2 4 2
0.043118 0.0037084 0.0037084 2 4 2
0.042912 0.0035817 0.0035817 2 4 2
0.042707 0.0034559 0.0034559 2 4 2
0.042504 0.0033309 0.0033309 2 4 2
0.042302 0.0032067 0.0032067 2 4 2
0.042101 0.0030834 0.0030834 2 4 2
0.041903 0.002961 0.002961 2 4 2
0.041705 0.0028396 0.0028396 2 4 2
0.04151 0.0027192 0.0027192 2 4 2
0.041316 0.0025999 0.0025999 2 4 2
0.041125 0.0024817 0.0024817 2 4 2
0.040935 0.0023647 0.0023647 2 4 2
0.040748 0.002249 0.002249 2 4 2
0.040563 0.0021348 0.0021348 2 4 2
0.04038 0.0020221 0.0020221 2 4 2
0.040201 0.0019111 0.0019111 2 4 2
0.040025 0.0018018 0.0018018 2 4 2
0.039852 0.0016946 0.0016946 2 4 2
0.039682 0.0015897 0.0015897 2 4 2
0.039517 0.0014871 0.0014871 2 4 2
0.039357 0.0013873 0.0013873 2 4 2
0.039201 0.0012904 0.0012904 2 4 2
0.039051 0.0011967 0.0011967 2 4 2
0.038906 0.0011066 0.0011066 2 4 2
0.038768 0.0010203 0.0010203 2 4 2
0.038636 0.00093807 0.00093807 2 4 2
0.038512 0.00086017 0.00086017 2 4 2
0.038395 0.00078677 0.00078677 2 4 2
0.038285 0.00071798 0.00071798 2 4 2
0.038183 0.00065382 0.00065382 2 4 2
0.038089 0.00059427 0.00059427 2 4 2
0.038001 0.0005392 0.0005392 2 4 2
0.037921 0.00048844 0.00048844 2 4 2
0.037847 0.00044177 0.00044177 2 4 2
0.03778 0.00039892 0.00039892 2 4 2
0.037718 0.00035961 0.00035961 2 4 2
0.037661 0.00032356 0.00032356 2 4 2
0.037609 0.00029048 0.00029048 2 4 2
0.037561 0.00026009 0.00026009 2 4 2
0.037518 0.00023214 0.00023214 2 4 2
0.037477 0.00020636 0.00020636 2 4 2
0.03744 0.00018254 0.00018254 2 4 2
0.037406 0.00016048 0.00016048 2 4 2
0.037374 0.00013997 0.00013997 2 4 2
0.037344 0.00012085 0.00012085 2 4 2
0.037317 0.00010297 0.00010297 2 4 2
0.037291 8.6171e-05 8.6171e-05 2 4 2
0.037266 7.0341e-05 7.0341e-05 2 4 2
0.037243 5.536e-05 5.536e-05 2 4 2
0.037221 4.1122e-05 4.1122e-05 2 4 2
0.0372 2.7534e-05 2.7534e-05 2 4 2
0.03718 1.4507e-05 1.4507e-05 2 4 2
0.037161 1.9635e-06 1.9635e-06 2 4 2
0.037143 -1.0171e-05 -1.0171e-05 2 4 2
Inf Inf Inf Inf Inf Inf
0.041952 0.005 0.005 2 5 2
0.041948 0.0049963 0.0049963 2 5 2
0.041942 0.0049907 0.0049907 2 5 2
0.041936 0.0049846 0.0049846 2 5 2
0.041923 0.0049724 0.0049724 2 5 2
0.041898 0.0049479 0.0049479 2 5 2
0.041846 0.004899 0.004899 2 5 2
0.041744 0.0048017 0.0048017 2 5 2
0.041591 0.0046564 0.0046564 2 5 2
0.041424 0.0044977 0.0044977 2 5 2
0.04124 0.0043245 0.0043245 2 5 2
0.041048 0.0041452 0.0041452 2 5 2
0.040858 0.0039674 0.0039674 2 5 2
0.040668 0.0037911 0.0037911 2 5 2
0.040479 0.0036162 0.0036162 2 5 2
0.040291 0.0034428 0.0034428 2 5 2
0.040104 0.0032709 0.0032709 2 5 2
0.039917 0.0031003 0.0031003 2 5 2
0.039731 0.0029312 0.0029312 2 5 2
0.039546 0.0027635 0.0027635 2 5 2
0.039362 0.0025972 0.0025972 2 5 2
0.039178 0.0024323 0.0024323 2 5 2
0.038995 0.0022688 0.0022688 2 5 2
0.038813 0.0021066 0.0021066 2 5 2
0.038632 0.0019458 0.0019458 2 5 2
0.038452 0.0017863 0.0017863 2 5 2
0.038272 0.0016282 0.0016282 2 5 2
0.038093 0.0014714 0.0014714 2 5 2
0.037915 0.0013159 0.0013159 2 5 2
0.037738 0.0011617 0.0011617 2 5 2
0.037561 0.0010087 0.0010087 2 5 2
0.037386 0.0008571 0.0008571 2 5 2
0.037211 0.00070672 0.00070672 2 5 2
0.037037 0.0005576 0.0005576 2 5 2
0.036864 0.00040972 0.00040972 2 5 2
0.036691 0.00026308 0.00026308 2 5 2
0.03652 0.00011766 0.00011766 2 5 2
0.036434 4.5405e-05 4.5405e-05 2 5 2
0.036413 2.739e-05 2.739e-05 2 5 2
0.036392 9.4067e-06 9.4067e-06 2 5 2
0.036386 4.9034e-06 4.9034e-06 2 5 2
0.036385 3.7773e-06 3.7773e-06 2 5 2
0.036383 2.2371e-06 2.2371e-06 2 5 2
Inf Inf Inf Inf Inf Inf
0.043918 0.005 0.005 2 6 2
0.043914 0.0049971 0.0049971 2 6 2
0.043905 0.0049913 0.0049913 2 6 2
0.043886 0.0049798 0.0049798 2 6 2
0.043849 0.0049567 0.0049567 2 6 2
0.043775 0.0049105 0.0049105 2 6 2
0.043664 0.0048414 0.0048414 2 6 2
0.043499 0.0047379 0.0047379 2 6 2
0.043269 0.0045945 0.0045945 2 6 2
0.04304 0.0044516 0.0044516 2 6 2
0.042811 0.0043092 0.0043092 2 6 2
0.042584 0.0041672 0.0041672 2 6 2
0.042357 0.0040256 0.0040256 2 6 2
0.042131 0.0038846 0.0038846 2 6 2
0.041906 0.003744 0.003744 2 6 2
0.041682 0.0036038 0.0036038 2 6 2
0.041459 0.0034642 0.0034642 2 6 2
0.041237 0.003325 0.003325 2 6 2
0.041015 0.0031862 0.0031862 2 6 2
0.040794 0.003048 0.003048 2 6 2
0.040575 0.0029102 0.0029102 2 6 2
0.040356 0.0027729 0.0027729 2 6 2
0.040139 0.0026361 0.0026361 2 6 2
0.039922 0.0024997 0.0024997 2 6 2
0.039706 0.0023639 0.0023639 2 6 2
0.039491 0.0022285 0.0022285 2 6 2
0.039278 0.0020936 0.0020936 2 6 2
0.039065 0.0019592 0.0019592 2 6 2
0.038854 0.0018253 0.0018253 2 6 2
0.038643 0.0016919 0.0016919 2 6 2
0.038434 0.001559 0.001559 2 6 2
0.038226 0.0014266 0.0014266 2 6 2
0.038018 0.0012948 0.0012948 2 6 2
0.037812 0.0011634 0.0011634 2 6 2
0.037607 0.0010325 0.0010325 2 6 2
0.037403 0.00090217 0.00090217 2 6 2
0.037201 0.00077235 0.00077235 2 6 2
0.036999 0.00064305 0.00064305 2 6 2
0.036799 0.00051428 0.00051428 2 6 2
0.0366 0.00038605 0.00038605 2 6 2
0.036402 0.00025835 0.00025835 2 6 2
0.036205 0.0001312 0.0001312 2 6 2
0.036009 4.5927e-06 4.5927e-06 2 6 2
0.035815 -0.00012146 -0.00012146 2 6 2
Inf Inf Inf Inf Inf Inf
0.043918 0.005 0.005 2 7 2
0.043923 0.0050029 0.0050029 2 7 2
0.043932 0.0050087 0.0050087 2 7 2
0.043951 0.0050202 0.0050202 2 7 2
0.043988 0.0050434 0.0050434 2 7 2
0.044062 0.0050896 0.0050896 2 7 2
0.044173 0.0051591 0.0051591 2 7 2
0.044341 0.0052636 0.0052636 2 7 2
0.044574 0.0054091 0.0054091 2 7 2
0.044807 0.005555 0.005555 2 7 2
0.045041 0.0057013 0.0057013 2 7 2
0.045276 0.0058482 0.0058482 2 7 2
0.045512 0.0059954 0.0059954 2 7 2
0.045747 0.0061431 0.0061431 2 7 2
0.045984 0.0062912 0.0062912 2 7 2
0.04622 0.0064398 0.0064398 2 7 2
0.046457 0.0065888 0.0065888 2 7 2
0.046695 0.0067382 0.0067382 2 7 2
0.046933 0.006888 0.006888 2 7 2
0.047171 0.0070383 0.0070383 2 7 2
0.04741 0.007189 0.007189 2 7 2
0.047649 0.0073401 0.0073401 2 7 2
0.047888 0.0074916 0.0074916 2 7 2
0.048127 0.0076435 0.0076435 2 7 2
0.048367 0.0077959 0.0077959 2 7 2
0.048606 0.0079486 0.0079486 2 7 2
0.048846 0.0081017 0.0081017 2 7 2
0.049086 0.0082552 0.0082552 2 7 2
0.049326 0.0084091 0.0084091 2 7 2
0.049566 0.0085634 0.0085634 2 7 2
0.049806 0.008718 0.008718 2 7 2
0.050045 0.008873 0.008873 2 7 2
0.050285 0.0090283 0.0090283 2 7 2
0.050524 0.009184 0.009184 2 7 2
0.050764 0.00934 0.00934 2 7 2
0.051002 0.0094964 0.0094964 2 7 2
0.051241 0.0096531 0.0096531 2 7 2
0.05148 0.00981 0.00981 2 7 2
0.051718 0.0099673 0.0099673 2 7 2
0.051955 0.010125 0.010125 2 7 2
0.052192 0.010283 0.010283 2 7 2
0.052429 0.010441 0.010441 2 7 2
0.052665 0.010599 0.010599 2 7 2
0.052901 0.010758 0.010758 2 7 2
0.053135 0.010917 0.010917 2 7 2
0.053369 0.011076 0.011076 2 7 2
0.053603 0.011235 0.011235 2 7 2
0.053835 0.011394 0.011394 2 7 2
0.054067 0.011554 0.011554 2 7 2
0.054298 0.011714 0.011714 2 7 2
0.054528 0.011874 0.011874 2 7 2
0.054757 0.012034 0.012034 2 7 2
0.054985 0.012194 0.012194 2 7 2
0.055211 0.012354 0.012354 2 7 2
0.055437 0.012514 0.012514 2 7 2
0.055662 0.012674 0.012674 2 7 2
0.055885 0.012835 0.012835 2 7 2
0.056107 0.012995 0.012995 2 7 2
0.056327 0.013155 0.013155 2 7 2
0.056546 0.013315 0.013315 2 7 2
0.056764 0.013475 0.013475 2 7 2
0.056981 0.013635 0.013635 2 7 2
0.057195 0.013795 0.013795 2 7 2
0.057409 0.013955 0.013955 2 7 2
0.05762 0.014115 0.014115 2 7 2
0.05783 0.014274 0.014274 2 7 2
0.058038 0.014433 0.014433 2 7 2
0.058245 0.014592 0.014592 2 7 2
0.058449 0.014751 0.014751 2 7 2
0.058652 0.014909 0.014909 2 7 2
0.058853 0.015068 0.015068 2 7 2
0.059052 0.015225 0.015225 2 7 2
0.059249 0.015383 0.015383 2 7 2
0.059444 0.015539 0.015539 2 7 2
0.059636 0.015696 0.015696 2 7 2
0.059827 0.015852 0.015852 2 7 2
0.060016 0.016008 0.016008 2 7 2
0.060202 0.016162 0.016162 2 7 2
0.060386 0.016317 0.016317 2 7 2
0.060568 0.016471 0.016471 2 7 2
0.060748 0.016624 0.016624 2 7 2
0.060925 0.016776 0.016776 2 7 2
0.0611 0.016928 0.016928 2 7 2
0.061273 0.017079 0.017079 2 7 2
0.061443 0.01723 0.01723 2 7 2
0.061611 0.017379 0.017379 2 7 2
0.061776 0.017528 0.017528 2 7 2
0.06194 0.017676 0.017676 2 7 2
0.0621 0.017823 0.017823 2 7 2
0.062258 0.017969 0.017969 2 7 2
0.062413 0.018114 0.018114 2 7 2
0.062566 0.018259 0.018259 2 7 2
0.062717 0.018402 0.018402 2 7 2
0.062865 0.018544 0.018544 2 7 2
0.06301 0.018685 0.018685 2 7 2
0.063152 0.018825 0.018825 2 7 2
0.063293 0.018964 0.018964 2 7 2
0.06343 0.019102 0.019102 2 7 2
0.063565 0.019238 0.019238 2 7 2
0.063697 0.019374 0.019374 2 7 2
0.063827 0.019508 0.019508 2 7 2
0.063954 0.019641 0.019641 2 7 2
0.064078 0.019772 0.019772 2 7 2
0.0642 0.019903 0.019903 2 7 2
0.06432 0.020032 0.020032 2 7 2
0.064436 0.020159 0.020159 2 7 2
0.06455 0.020285 0.020285 2 7 2
0.064662 0.02041 0.02041 2 7 2
0.064771 0.020533 0.020533 2 7 2
0.064878 0.020655 0.020655 2 7 2
0.064982 0.020775 0.020775 2 7 2
0.065083 0.020894 0.020894 2 7 2
0.065182 0.021011 0.021011 2 7 2
0.065279 0.021127 0.021127 2 7 2
0.065373 0.021241 0.021241 2 7 2
0.065465 0.021353 0.021353 2 7 2
0.065554 0.021464 0.021464 2 7 2
0.065641 0.021573 0.021573 2 7 2
0.065726 0.021681 0.021681 2 7 2
0.065808 0.021787 0.021787 2 7 2
0.065889 0.021891 0.021891 2 7 2
0.065966 0.021994 0.021994 2 7 2
0.066042 0.022095 0.022095 2 7 2
0.066116 0.022194 0.022194 2 7 2
0.066187 0.022292 0.022292 2 7 2
0.066256 0.022388 0.022388 2 7 2
0.066323 0.022482 0.022482 2 7 2
0.066389 0.022575 0.022575 2 7 2
0.066452 0.022665 0.022665 2 7 2
0.066513 0.022754 0.022754 2 7 2
0.066572 0.022842 0.022842 2 7 2
0.066629 0.022927 0.022927 2 7 2
0.066685 0.023011 0.023011 2 7 2
0.066738 0.023093 0.023093 2 7 2
0.06679 0.023174 0.023174 2 7 2
0.06684 0.023252 0.023252 2 7 2
0.066889 0.023329 0.023329 2 7 2
0.066935 0.023405 0.023405 2 7 2
0.06698 0.023478 0.023478 2 7 2
0.067024 0.02355 0.02355 2 7 2
0.067066 0.023621 0.023621 2 7 2
0.067106 0.023689 0.023689 2 7 2
0.067145 0.023756 0.023756 2 7 2
0.067182 0.023821 0.023821 2 7 2
0.067218 0.023885 0.023885 2 7 2
0.067253 0.023947 0.023947 2 7 2
0.067286 0.024007 0.024007 2 7 2
0.067318 0.024066 0.024066 2 7 2
0.067349 0.024123 0.024123 2 7 2
0.067378 0.024179 0.024179 2 7 2
0.067407 0.024233 0.024233 2 7 2
0.067434 0.024285 0.024285 2 7 2
0.06746 0.024336 0.024336 2 7 2
0.067484 0.024386 0.024386 2 7 2
0.067508 0.024433 0.024433 2 7 2
0.067531 0.02448 0.02448 2 7 2
0.067553 0.024525 0.024525 2 7 2
0.067573 0.024568 0.024568 2 7 2
0.067593 0.02461 0.02461 2 7 2
0.067612 0.02465 0.02465 2 7 2
0.067629 0.024689 0.024689 2 7 2
0.067646 0.024727 0.024727 2 7 2
0.067663 0.024763 0.024763 2 7 2
0.067678 0.024798 0.024798 2 7 2
0.067692 0.024831 0.024831 2 7 2
0.067706 0.024864 0.024864 2 7 2
0.067719 0.024894 0.024894 2 7 2
0.067731 0.024924 0.024924 2 7 2
0.067743 0.024952 0.024952 2 7 2
0.067754 0.024979 0.024979 2 7 2
0.067764 0.025004 0.025004 2 7 2
0.067773 0.025028 0.025028 2 7 2
0.067782 0.025051 0.025051 2 7 2
0.067791 0.025073 0.025073 2 7 2
0.067798 0.025094 0.025094 2 7 2
0.067805 0.025113 0.025113 2 7 2
0.067812 0.025131 0.025131 2 7 2
0.067818 0.025148 0.025148 2 7 2
0.067824 0.025164 0.025164 2 7 2
0.067829 0.025178 0.025178 2 7 2
0.067834 0.025191 0.025191 2 7 2
0.067838 0.025204 0.025204 2 7 2
0.067841 0.025215 0.025215 2 7 2
0.067845 0.025225 0.025225 2 7 2
0.067848 0.025234 0.025234 2 7 2
0.06785 0.025241 0.025241 2 7 2
0.067852 0.025248 0.025248 2 7 2
0.067854 0.025254 0.025254 2 7 2
0.067855 0.025258 0.025258 2 7 2
0.067856 0.025262 0.025262 2 7 2
0.067857 0.025264 0.025264 2 7 2
0.067857 0.025265 0.025265 2 7 2
0.067857 0.025266 0.025266 2 7 2
0.067857 0.025265 0.025265 2 7 2
0.067857 0.025263 0.025263 2 7 2
0.067856 0.025261 0.025261 2 7 2
0.067855 0.025257 0.025257 2 7 2
0.067854 0.025252 0.025252 2 7 2
0.067852 0.025246 0.025246 2 7 2
0.067851 0.02524 0.02524 2 7 2
0.067849 0.025232 0.025232 2 7 2
0.067847 0.025223 0.025223 2 7 2
0.067844 0.025214 0.025214 2 7 2
0.067842 0.025203 0.025203 2 7 2
0.067839 0.025191 0.025191 2 7 2
0.067836 0.025179 0.025179 2 7 2
0.067834 0.025166 0.025166 2 7 2
0.067831 0.025151 0.025151 2 7 2
0.067827 0.025136 0.025136 2 7 2
0.067824 0.02512 0.02512 2 7 2
0.067821 0.025103 0.025103 2 7 2
0.067817 0.025085 0.025085 2 7 2
0.067813 0.025066 0.025066 2 7 2
0.06781 0.025046 0.025046 2 7 2
0.067806 0.025026 0.025026 2 7 2
0.067802 0.025004 0.025004 2 7 2
0.067799 0.024982 0.024982 2 7 2
0.067795 0.024959 0.024959 2 7 2
0.067791 0.024934 0.024934 2 7 2
0.067787 0.024909 0.024909 2 7 2
0.067783 0.024884 0.024884 2 7 2
0.067779 0.024857 0.024857 2 7 2
0.067775 0.02483 0.02483 2 7 2
0.067771 0.024801 0.024801 2 7 2
0.067767 0.024772 0.024772 2 7 2
0.067764 0.024742 0.024742 2 7 2
0.06776 0.024711 0.024711 2 7 2
0.067756 0.02468 0.02468 2 7 2
0.067752 0.024647 0.024647 2 7 2
0.067749 0.024614 0.024614 2 7 2
0.067745 0.02458 0.02458 2 7 2
0.067742 0.024545 0.024545 2 7 2
0.067739 0.02451 0.02451 2 7 2
0.067735 0.024474 0.024474 2 7 2
0.067732 0.024437 0.024437 2 7 2
0.067729 0.024399 0.024399 2 7 2
0.067726 0.02436 0.02436 2 7 2
0.067724 0.024321 0.024321 2 7 2
0.067721 0.024281 0.024281 2 7 2
0.067719 0.02424 0.02424 2 7 2
0.067716 0.024199 0.024199 2 7 2
0.067714 0.024157 0.024157 2 7 2
0.067712 0.024114 0.024114 2 7 2
0.067711 0.024071 0.024071 2 7 2
0.067709 0.024026 0.024026 2 7 2
0.067708 0.023981 0.023981 2 7 2
0.067707 0.023936 0.023936 2 7 2
0.067706 0.02389 0.02389 2 7 2
0.067705 0.023843 0.023843 2 7 2
0.067704 0.023796 0.023796 2 7 2
0.067704 0.023748 0.023748 2 7 2
0.067704 0.023699 0.023699 2 7 2
0.067704 0.02365 0.02365 2 7 2
0.067704 0.0236 0.0236 2 7 2
0.067705 0.023549 0.023549 2 7 2
0.067706 0.023498 0.023498 2 7 2
0.067707 0.023447 0.023447 2 7 2
0.067708 0.023395 0.023395 2 7 2
0.06771 0.023342 0.023342 2 7 2
0.067712 0.023289 0.023289 2 7 2
0.067714 0.023235 0.023235 2 7 2
0.067716 0.023181 0.023181 2 7 2
0.067719 0.023126 0.023126 2 7 2
0.067722 0.023071 0.023071 2 7 2
0.067725 0.023015 0.023015 2 7 2
0.067728 0.022959 0.022959 2 7 2
0.067732 0.022903 0.022903 2 7 2
0.067736 0.022846 0.022846 2 7 2
0.06774 0.022788 0.022788 2 7 2
0.067744 0.02273 0.02273 2 7 2
0.067749 0.022672 0.022672 2 7 2
0.067754 0.022613 0.022613 2 7 2
0.067759 0.022554 0.022554 2 7 2
0.067765 0.022495 0.022495 2 7 2
0.06777 0.022435 0.022435 2 7 2
0.067776 0.022375 0.022375 2 7 2
0.067782 0.022314 0.022314 2 7 2
0.067789 0.022253 0.022253 2 7 2
0.067795 0.022192 0.022192 2 7 2
0.067802 0.022131 0.022131 2 7 2
0.067809 0.022069 0.022069 2 7 2
0.067817 0.022007 0.022007 2 7 2
0.067824 0.021945 0.021945 2 7 2
0.067832 0.021882 0.021882 2 7 2
0.06784 0.021819 0.021819 2 7 2
0.067848 0.021756 0.021756 2 7 2
0.067856 0.021693 0.021693 2 7 2
0.067865 0.02163 0.02163 2 7 2
0.067874 0.021566 0.021566 2 7 2
0.067882 0.021502 0.021502 2 7 2
0.067891 0.021438 0.021438 2 7 2
0.067901 0.021374 0.021374 2 7 2
0.06791 0.021309 0.021309 2 7 2
0.067919 0.021245 0.021245 2 7 2
0.067929 0.02118 0.02118 2 7 2
0.067939 0.021115 0.021115 2 7 2
0.067949 0.02105 0.02105 2 7 2
0.067959 0.020985 0.020985 2 7 2
0.067969 0.02092 0.02092 2 7 2
0.067979 0.020855 0.020855 2 7 2
0.067989 0.020789 0.020789 2 7 2
0.067999 0.020724 0.020724 2 7 2
0.06801 0.020658 0.020658 2 7 2
0.06802 0.020592 0.020592 2 7 2
0.068031 0.020527 0.020527 2 7 2
0.068041 0.020461 0.020461 2 7 2
0.068052 0.020396 0.020396 2 7 2
0.068062 0.02033 0.02033 2 7 2
0.068073 0.020264 0.020264 2 7 2
0.068084 0.020198 0.020198 2 7 2
0.068094 0.020133 0.020133 2 7 2
0.068105 0.020067 0.020067 2 7 2
0.068115 0.020001 0.020001 2 7 2
0.068126 0.019935 0.019935 2 7 2
0.068136 0.01987 0.01987 2 7 2
0.068147 0.019804 0.019804 2 7 2
0.068157 0.019739 0.019739 2 7 2
0.068168 0.019673 0.019673 2 7 2
0.068178 0.019608 0.019608 2 7 2
0.068188 0.019543 0.019543 2 7 2
0.068198 0.019477 0.019477 2 7 2
0.068208 0.019412 0.019412 2 7 2
0.068218 0.019348 0.019348 2 7 2
0.068228 0.019283 0.019283 2 7 2
0.068238 0.019218 0.019218 2 7 2
0.068247 0.019154 0.019154 2 7 2
0.068257 0.019089 0.019089 2 7 2
0.068266 0.019025 0.019025 2 7 2
0.068276 0.018961 0.018961 2 7 2
0.068285 0.018898 0.018898 2 7 2
0.068294 0.018834 0.018834 2 7 2
0.068302 0.018771 0.018771 2 7 2
0.068311 0.018708 0.018708 2 7 2
0.06832 0.018645 0.018645 2 7 2
0.068328 0.018582 0.018582 2 7 2
0.068336 0.01852 0.01852 2 7 2
0.068344 0.018458 0.018458 2 7 2
0.068352 0.018396 0.018396 2 7 2
0.06836 0.018335 0.018335 2 7 2
0.068367 0.018274 0.018274 2 7 2
0.068374 0.018213 0.018213 2 7 2
0.068381 0.018153 0.018153 2 7 2
0.068388 0.018093 0.018093 2 7 2
0.068395 0.018034 0.018034 2 7 2
0.068401 0.017975 0.017975 2 7 2
0.068408 0.017916 0.017916 2 7 2
0.068414 0.017858 0.017858 2 7 2
0.06842 0.0178 0.0178 2 7 2
0.068425 0.017742 0.017742 2 7 2
0.068431 0.017686 0.017686 2 7 2
0.068436 0.017629 0.017629 2 7 2
0.068441 0.017573 0.017573 2 7 2
0.068446 0.017518 0.017518 2 7 2
0.068451 0.017464 0.017464 2 7 2
0.068455 0.01741 0.01741 2 7 2
0.06846 0.017356 0.017356 2 7 2
0.068464 0.017303 0.017303 2 7 2
0.068468 0.017251 0.017251 2 7 2
0.068471 0.0172 0.0172 2 7 2
0.068475 0.017149 0.017149 2 7 2
0.068478 0.017099 0.017099 2 7 2
0.068481 0.017049 0.017049 2 7 2
0.068484 0.017001 0.017001 2 7 2
0.068487 0.016953 0.016953 2 7 2
0.068489 0.016906 0.016906 2 7 2
0.068492 0.016859 0.016859 2 7 2
0.068494 0.016814 0.016814 2 7 2
0.068496 0.016769 0.016769 2 7 2
0.068498 0.016726 0.016726 2 7 2
0.0685 0.016683 0.016683 2 7 2
0.068502 0.016641 0.016641 2 7 2
0.068503 0.0166 0.0166 2 7 2
0.068505 0.01656 0.01656 2 7 2
0.068506 0.016521 0.016521 2 7 2
0.068507 0.016483 0.016483 2 7 2
0.068508 0.016446 0.016446 2 7 2
0.068509 0.016409 0.016409 2 7 2
0.06851 0.016374 0.016374 2 7 2
0.068511 0.01634 0.01634 2 7 2
0.068512 0.016307 0.016307 2 7 2
0.068512 0.016275 0.016275 2 7 2
0.068513 0.016244 0.016244 2 7 2
0.068513 0.016214 0.016214 2 7 2
0.068514 0.016185 0.016185 2 7 2
0.068514 0.016157 0.016157 2 7 2
0.068514 0.01613 0.01613 2 7 2
0.068515 0.016104 0.016104 2 7 2
0.068515 0.016079 0.016079 2 7 2
0.068515 0.016056 0.016056 2 7 2
0.068515 0.016033 0.016033 2 7 2
0.068515 0.016011 0.016011 2 7 2
0.068515 0.01599 0.01599 2 7 2
0.068515 0.01597 0.01597 2 7 2
0.068515 0.015952 0.015952 2 7 2
0.068515 0.015934 0.015934 2 7 2
0.068515 0.015917 0.015917 2 7 2
0.068515 0.015901 0.015901 2 7 2
0.068515 0.015885 0.015885 2 7 2
0.068515 0.015871 0.015871 2 7 2
0.068515 0.015858 0.015858 2 7 2
0.068515 0.015845 0.015845 2 7 2
0.068515 0.015833 0.015833 2 7 2
0.068515 0.015822 0.015822 2 7 2
0.068515 0.015811 0.015811 2 7 2
0.068515 0.015802 0.015802 2 7 2
0.068515 0.015793 0.015793 2 7 2
0.068515 0.015784 0.015784 2 7 2
0.068515 0.015776 0.015776 2 7 2
0.068515 0.015769 0.015769 2 7 2
0.068515 0.015762 0.015762 2 7 2
0.068515 0.015756 0.015756 2 7 2
0.068515 0.015751 0.015751 2 7 2
0.068515 0.015745 0.015745 2 7 2
0.068515 0.01574 0.01574 2 7 2
0.068515 0.015736 0.015736 2 7 2
0.068515 0.015731 0.015731 2 7 2
0.068515 0.015727 0.015727 2 7 2
0.068515 0.015723 0.015723 2 7 2
0.068515 0.01572 0.01572 2 7 2
0.068515 0.015716 0.015716 2 7 2
0.068515 0.015712 0.015712 2 7 2
0.068515 0.015709 0.015709 2 7 2
0.068515 0.015705 0.015705 2 7 2
0.068515 0.015701 0.015701 2 7 2
0.068515 0.015697 0.015697 2 7 2
0.068515 0.015693 0.015693 2 7 2
0.068515 0.015689 0.015689 2 7 2
0.068515 0.015684 0.015684 2 7 2
0.068515 0.015679 0.015679 2 7 2
0.068515 0.015673 0.015673 2 7 2
0.068515 0.015667 0.015667 2 7 2
0.068516 0.01566 0.01566 2 7 2
0.068516 0.015653 0.015653 2 7 2
0.068516 0.015645 0.015645 2 7 2
0.068516 0.015636 0.015636 2 7 2
0.068516 0.015626 0.015626 2 7 2
0.068516 0.015615 0.015615 2 7 2
0.068516 0.015604 0.015604 2 7 2
0.068516 0.015591 0.015591 2 7 2
0.068515 0.015578 0.015578 2 7 2
0.068515 0.015563 0.015563 2 7 2
0.068515 0.015547 0.015547 2 7 2
0.068515 0.01553 0.01553 2 7 2
0.068515 0.015511 0.015511 2 7 2
0.068515 0.015491 0.015491 2 7 2
0.068514 0.01547 0.01547 2 7 2
0.068514 0.015447 0.015447 2 7 2
0.068513 0.015423 0.015423 2 7 2
0.068512 0.015397 0.015397 2 7 2
0.068511 0.015369 0.015369 2 7 2
0.06851 0.01534 0.01534 2 7 2
0.068508 0.01531 0.01531 2 7 2
0.068507 0.015278 0.015278 2 7 2
0.068505 0.015244 0.015244 2 7 2
0.068502 0.015209 0.015209 2 7 2
0.0685 0.015172 0.015172 2 7 2
0.068497 0.015134 0.015134 2 7 2
0.068493 0.015094 0.015094 2 7 2
0.06849 0.015052 0.015052 2 7 2
0.068486 0.015009 0.015009 2 7 2
0.068481 0.014965 0.014965 2 7 2
0.068475 0.014919 0.014919 2 7 2
0.06847 0.014872 0.014872 2 7 2
0.068463 0.014823 0.014823 2 7 2
0.068457 0.014773 0.014773 2 7 2
0.068449 0.014722 0.014722 2 7 2
0.068441 0.014669 0.014669 2 7 2
0.068432 0.014615 0.014615 2 7 2
0.068422 0.01456 0.01456 2 7 2
0.068412 0.014504 0.014504 2 7 2
0.0684 0.014446 0.014446 2 7 2
0.068388 0.014387 0.014387 2 7 2
0.068376 0.014328 0.014328 2 7 2
0.068362 0.014267 0.014267 2 7 2
0.068347 0.014205 0.014205 2 7 2
0.068332 0.014142 0.014142 2 7 2
0.068316 0.014079 0.014079 2 7 2
0.068298 0.014014 0.014014 2 7 2
0.06828 0.013948 0.013948 2 7 2
0.068261 0.013881 0.013881 2 7 2
0.068241 0.013814 0.013814 2 7 2
0.068219 0.013746 0.013746 2 7 2
0.068197 0.013676 0.013676 2 7 2
0.068174 0.013606 0.013606 2 7 2
0.068149 0.013535 0.013535 2 7 2
0.068124 0.013463 0.013463 2 7 2
0.068097 0.013391 0.013391 2 7 2
0.068069 0.013317 0.013317 2 7 2
0.06804 0.013243 0.013243 2 7 2
0.06801 0.013168 0.013168 2 7 2
0.067979 0.013093 0.013093 2 7 2
0.067946 0.013016 0.013016 2 7 2
0.067912 0.012939 0.012939 2 7 2
0.067877 0.012861 0.012861 2 7 2
0.067841 0.012782 0.012782 2 7 2
0.067803 0.012702 0.012702 2 7 2
0.067764 0.012622 0.012622 2 7 2
0.067724 0.012541 0.012541 2 7 2
0.067682 0.012459 0.012459 2 7 2
0.067639 0.012377 0.012377 2 7 2
0.067594 0.012294 0.012294 2 7 2
0.067548 0.01221 0.01221 2 7 2
0.067501 0.012125 0.012125 2 7 2
0.067452 0.012039 0.012039 2 7 2
0.067402 0.011953 0.011953 2 7 2
0.06735 0.011866 0.011866 2 7 2
0.067296 0.011779 0.011779 2 7 2
0.067242 0.01169 0.01169 2 7 2
0.067185 0.011601 0.011601 2 7 2
0.067127 0.011511 0.011511 2 7 2
0.067068 0.011421 0.011421 2 7 2
0.067006 0.011329 0.011329 2 7 2
0.066944 0.011237 0.011237 2 7 2
0.066879 0.011145 0.011145 2 7 2
0.066813 0.011051 0.011051 2 7 2
0.066745 0.010957 0.010957 2 7 2
0.066675 0.010862 0.010862 2 7 2
0.066604 0.010767 0.010767 2 7 2
0.066531 0.01067 0.01067 2 7 2
0.066457 0.010573 0.010573 2 7 2
0.06638 0.010475 0.010475 2 7 2
0.066302 0.010377 0.010377 2 7 2
0.066222 0.010278 0.010278 2 7 2
0.06614 0.010178 0.010178 2 7 2
0.066056 0.010077 0.010077 2 7 2
0.06597 0.0099755 0.0099755 2 7 2
0.065883 0.0098735 0.0098735 2 7 2
0.065794 0.0097707 0.0097707 2 7 2
0.065702 0.0096673 0.0096673 2 7 2
0.065609 0.0095631 0.0095631 2 7 2
0.065514 0.0094583 0.0094583 2 7 2
0.065417 0.0093528 0.0093528 2 7 2
0.065319 0.0092467 0.0092467 2 7 2
0.065218 0.0091398 0.0091398 2 7 2
0.065115 0.0090324 0.0090324 2 7 2
0.065011 0.0089242 0.0089242 2 7 2
0.064904 0.0088155 0.0088155 2 7 2
0.064796 0.0087061 0.0087061 2 7 2
0.064685 0.0085961 0.0085961 2 7 2
0.064573 0.0084855 0.0084855 2 7 2
0.064459 0.0083742 0.0083742 2 7 2
0.064342 0.0082624 0.0082624 2 7 2
0.064224 0.00815 0.00815 2 7 2
0.064104 0.0080371 0.0080371 2 7 2
0.063982 0.0079236 0.0079236 2 7 2
0.063858 0.0078096 0.0078096 2 7 2
0.063732 0.007695 0.007695 2 7 2
0.063604 0.0075799 0.0075799 2 7 2
0.063474 0.0074644 0.0074644 2 7 2
0.063343 0.0073483 0.0073483 2 7 2
0.063209 0.0072318 0.0072318 2 7 2
0.063074 0.0071148 0.0071148 2 7 2
0.062937 0.0069975 0.0069975 2 7 2
0.062798 0.0068797 0.0068797 2 7 2
0.062657 0.0067615 0.0067615 2 7 2
0.062514 0.0066429 0.0066429 2 7 2
0.06237 0.0065239 0.0065239 2 7 2
0.062224 0.0064047 0.0064047 2 7 2
0.062076 0.0062851 0.0062851 2 7 2
0.061926 0.0061652 0.0061652 2 7 2
0.061775 0.006045 0.006045 2 7 2
0.061622 0.0059245 0.0059245 2 7 2
0.061468 0.0058039 0.0058039 2 7 2
0.061311 0.005683 0.005683 2 7 2
0.061154 0.0055619 0.0055619 2 7 2
0.060995 0.0054406 0.0054406 2 7 2
0.060834 0.0053191 0.0053191 2 7 2
0.060672 0.0051976 0.0051976 2 7 2
0.060508 0.0050759 0.0050759 2 7 2
0.060344 0.0049542 0.0049542 2 7 2
0.060177 0.0048323 0.0048323 2 7 2
0.06001 0.0047104 0.0047104 2 7 2
0.059841 0.0045885 0.0045885 2 7 2
0.059671 0.0044666 0.0044666 2 7 2
0.0595 0.0043448 0.0043448 2 7 2
0.059328 0.0042229 0.0042229 2 7 2
0.059155 0.0041012 0.0041012 2 7 2
0.05898 0.0039795 0.0039795 2 7 2
0.058805 0.0038579 0.0038579 2 7 2
0.058629 0.0037365 0.0037365 2 7 2
0.058452 0.0036152 0.0036152 2 7 2
0.058273 0.0034941 0.0034941 2 7 2
0.058095 0.0033732 0.0033732 2 7 2
0.057915 0.0032525 0.0032525 2 7 2
0.057735 0.003132 0.003132 2 7 2
0.057554 0.0030118 0.0030118 2 7 2
0.057372 0.0028918 0.0028918 2 7 2
0.05719 0.0027722 0.0027722 2 7 2
0.057007 0.0026528 0.0026528 2 7 2
0.056824 0.0025338 0.0025338 2 7 2
0.05664 0.0024152 0.0024152 2 7 2
0.056456 0.0022969 0.0022969 2 7 2
0.056272 0.0021789 0.0021789 2 7 2
0.056087 0.0020614 0.0020614 2 7 2
0.055902 0.0019442 0.0019442 2 7 2
0.055716 0.0018275 0.0018275 2 7 2
0.055531 0.0017113 0.0017113 2 7 2
0.055345 0.0015954 0.0015954 2 7 2
0.05516 0.00148 0.00148 2 7 2
0.054974 0.0013652 0.0013652 2 7 2
0.054788 0.0012507 0.0012507 2 7 2
0.054602 0.0011368 0.0011368 2 7 2
0.054416 0.0010234 0.0010234 2 7 2
0.05423 0.0009105 0.0009105 2 7 2
0.054045 0.00079811 0.00079811 2 7 2
0.053859 0.00068626 0.00068626 2 7 2
0.053673 0.00057494 0.00057494 2 7 2
0.053488 0.00046416 0.00046416 2 7 2
0.053303 0.00035392 0.00035392 2 7 2
0.053118 0.00024424 0.00024424 2 7 2
0.052934 0.00013512 0.00013512 2 7 2
0.05275 2.6552e-05 2.6552e-05 2 7 2
0.052566 -8.1449e-05 -8.1449e-05 2 7 2
Inf Inf Inf Inf Inf Inf
0.032963 0.005 0.005 2 8 2
0.032964 0.0050008 0.0050008 2 8 2
0.032966 0.0050023 0.0050023 2 8 2
0.03297 0.0050054 0.0050054 2 8 2
0.032977 0.0050117 0.0050117 2 8 2
0.032992 0.0050241 0.0050241 2 8 2
0.033022 0.0050491 0.0050491 2 8 2
0.033067 0.0050867 0.0050867 2 8 2
0.033114 0.0051261 0.0051261 2 8 2
0.033161 0.0051657 0.0051657 2 8 2
0.033209 0.0052056 0.0052056 2 8 2
0.033257 0.0052456 0.0052456 2 8 2
0.033305 0.0052858 0.0052858 2 8 2
0.033353 0.0053263 0.0053263 2 8 2
0.033402 0.0053669 0.0053669 2 8 2
0.03345 0.0054078 0.0054078 2 8 2
0.033499 0.0054488 0.0054488 2 8 2
0.033549 0.0054901 0.0054901 2 8 2
0.033598 0.0055316 0.0055316 2 8 2
0.033648 0.0055733 0.0055733 2 8 2
0.033698 0.0056152 0.0056152 2 8 2
0.033748 0.0056573 0.0056573 2 8 2
0.033799 0.0056996 0.0056996 2 8 2
0.03385 0.0057421 0.0057421 2 8 2
0.033901 0.0057848 0.0057848 2 8 2
0.033952 0.0058277 0.0058277 2 8 2
0.034003 0.0058708 0.0058708 2 8 2
0.034055 0.0059142 0.0059142 2 8 2
0.034107 0.0059577 0.0059577 2 8 2
0.03416 0.0060014 0.0060014 2 8 2
0.034212 0.0060454 0.0060454 2 8 2
0.034265 0.0060895 0.0060895 2 8 2
0.034318 0.0061338 0.0061338 2 8 2
0.034371 0.0061784 0.0061784 2 8 2
0.034424 0.0062232 0.0062232 2 8 2
0.034478 0.0062681 0.0062681 2 8 2
0.034532 0.0063132 0.0063132 2 8 2
0.034586 0.0063586 0.0063586 2 8 2
0.03464 0.0064041 0.0064041 2 8 2
0.034695 0.0064499 0.0064499 2 8 2
0.03475 0.0064958 0.0064958 2 8 2
0.034805 0.006542 0.006542 2 8 2
0.03486 0.0065883 0.0065883 2 8 2
0.034916 0.0066348 0.0066348 2 8 2
0.034971 0.0066816 0.0066816 2 8 2
0.035027 0.0067285 0.0067285 2 8 2
0.035083 0.0067756 0.0067756 2 8 2
0.03514 0.0068229 0.0068229 2 8 2
0.035196 0.0068704 0.0068704 2 8 2
0.035253 0.0069181 0.0069181 2 8 2
0.03531 0.006966 0.006966 2 8 2
0.035367 0.007014 0.007014 2 8 2
0.035425 0.0070623 0.0070623 2 8 2
0.035482 0.0071108 0.0071108 2 8 2
0.03554 0.0071594 0.0071594 2 8 2
0.035598 0.0072082 0.0072082 2 8 2
0.035657 0.0072572 0.0072572 2 8 2
0.035715 0.0073064 0.0073064 2 8 2
0.035774 0.0073558 0.0073558 2 8 2
0.035833 0.0074053 0.0074053 2 8 2
0.035891 0.007455 0.007455 2 8 2
0.035951 0.0075049 0.0075049 2 8 2
0.03601 0.007555 0.007555 2 8 2
0.03607 0.0076053 0.0076053 2 8 2
0.03613 0.0076557 0.0076557 2 8 2
0.036189 0.0077063 0.0077063 2 8 2
0.03625 0.0077571 0.0077571 2 8 2
0.03631 0.007808 0.007808 2 8 2
0.03637 0.0078591 0.0078591 2 8 2
0.036431 0.0079104 0.0079104 2 8 2
0.036492 0.0079618 0.0079618 2 8 2
0.036553 0.0080134 0.0080134 2 8 2
0.036614 0.0080652 0.0080652 2 8 2
0.036675 0.0081171 0.0081171 2 8 2
0.036737 0.0081692 0.0081692 2 8 2
0.036798 0.0082215 0.0082215 2 8 2
0.03686 0.0082739 0.0082739 2 8 2
0.036922 0.0083264 0.0083264 2 8 2
0.036984 0.0083791 0.0083791 2 8 2
0.037046 0.008432 0.008432 2 8 2
0.037108 0.008485 0.008485 2 8 2
0.037171 0.0085381 0.0085381 2 8 2
0.037233 0.0085914 0.0085914 2 8 2
0.037296 0.0086449 0.0086449 2 8 2
0.037359 0.0086984 0.0086984 2 8 2
0.037422 0.0087522 0.0087522 2 8 2
0.037485 0.008806 0.008806 2 8 2
0.037548 0.00886 0.00886 2 8 2
0.037611 0.0089141 0.0089141 2 8 2
0.037674 0.0089683 0.0089683 2 8 2
0.037738 0.0090227 0.0090227 2 8 2
0.037801 0.0090772 0.0090772 2 8 2
0.037865 0.0091318 0.0091318 2 8 2
0.037928 0.0091866 0.0091866 2 8 2
0.037992 0.0092414 0.0092414 2 8 2
0.038056 0.0092964 0.0092964 2 8 2
0.03812 0.0093515 0.0093515 2 8 2
0.038184 0.0094067 0.0094067 2 8 2
0.038248 0.009462 0.009462 2 8 2
0.038312 0.0095174 0.0095174 2 8 2
0.038376 0.0095729 0.0095729 2 8 2
0.038441 0.0096285 0.0096285 2 8 2
0.038505 0.0096842 0.0096842 2 8 2
0.038569 0.00974 0.00974 2 8 2
0.038634 0.0097958 0.0097958 2 8 2
0.038698 0.0098518 0.0098518 2 8 2
0.038762 0.0099079 0.0099079 2 8 2
0.038827 0.009964 0.009964 2 8 2
0.038891 0.01002 0.01002 2 8 2
0.038956 0.010077 0.010077 2 8 2
0.03902 0.010133 0.010133 2 8 2
0.039085 0.010189 0.010189 2 8 2
0.039149 0.010246 0.010246 2 8 2
0.039213 0.010302 0.010302 2 8 2
0.039278 0.010359 0.010359 2 8 2
0.039342 0.010416 0.010416 2 8 2
0.039407 0.010472 0.010472 2 8 2
0.039471 0.010529 0.010529 2 8 2
0.039536 0.010586 0.010586 2 8 2
0.0396 0.010643 0.010643 2 8 2
0.039664 0.0107 0.0107 2 8 2
0.039728 0.010757 0.010757 2 8 2
0.039792 0.010814 0.010814 2 8 2
0.039857 0.010871 0.010871 2 8 2
0.039921 0.010928 0.010928 2 8 2
0.039985 0.010985 0.010985 2 8 2
0.040049 0.011042 0.011042 2 8 2
0.040112 0.011099 0.011099 2 8 2
0.040176 0.011156 0.011156 2 8 2
0.04024 0.011213 0.011213 2 8 2
0.040303 0.011271 0.011271 2 8 2
0.040367 0.011328 0.011328 2 8 2
0.04043 0.011385 0.011385 2 8 2
0.040493 0.011442 0.011442 2 8 2
0.040556 0.011499 0.011499 2 8 2
0.040619 0.011556 0.011556 2 8 2
0.040682 0.011613 0.011613 2 8 2
0.040745 0.01167 0.01167 2 8 2
0.040807 0.011727 0.011727 2 8 2
0.040869 0.011784 0.011784 2 8 2
0.040932 0.011841 0.011841 2 8 2
0.040994 0.011898 0.011898 2 8 2
0.041055 0.011954 0.011954 2 8 2
0.041117 0.012011 0.012011 2 8 2
0.041178 0.012068 0.012068 2 8 2
0.04124 0.012124 0.012124 2 8 2
0.0413 0.01218 0.01218 2 8 2
0.041361 0.012237 0.012237 2 8 2
0.041422 0.012293 0.012293 2 8 2
0.041482 0.012349 0.012349 2 8 2
0.041542 0.012404 0.012404 2 8 2
0.041601 0.01246 0.01246 2 8 2
0.04166 0.012515 0.012515 2 8 2
0.041719 0.01257 0.01257 2 8 2
0.041777 0.012625 0.012625 2 8 2
0.041835 0.012679 0.012679 2 8 2
0.041892 0.012733 0.012733 2 8 2
0.041948 0.012786 0.012786 2 8 2
0.042003 0.012838 0.012838 2 8 2
0.042057 0.01289 0.01289 2 8 2
0.04211 0.012939 0.012939 2 8 2
0.042159 0.012987 0.012987 2 8 2
0.042205 0.013031 0.013031 2 8 2
0.042243 0.013067 0.013067 2 8 2
0.042266 0.013089 0.013089 2 8 2
0.042264 0.013087 0.013087 2 8 2
0.042241 0.013064 0.013064 2 8 2
0.042207 0.013032 0.013032 2 8 2
0.042168 0.012995 0.012995 2 8 2
0.042126 0.012955 0.012955 2 8 2
0.042082 0.012913 0.012913 2 8 2
0.042036 0.01287 0.01287 2 8 2
0.04199 0.012825 0.012825 2 8 2
0.041943 0.01278 0.01278 2 8 2
0.041895 0.012735 0.012735 2 8 2
0.041846 0.012689 0.012689 2 8 2
0.041797 0.012643 0.012643 2 8 2
0.041748 0.012596 0.012596 2 8 2
0.041699 0.01255 0.01255 2 8 2
0.041649 0.012503 0.012503 2 8 2
0.041599 0.012456 0.012456 2 8 2
0.041549 0.012409 0.012409 2 8 2
0.041499 0.012362 0.012362 2 8 2
0.041449 0.012315 0.012315 2 8 2
0.041398 0.012268 0.012268 2 8 2
0.041348 0.012221 0.012221 2 8 2
0.041297 0.012174 0.012174 2 8 2
0.041247 0.012127 0.012127 2 8 2
0.041196 0.012079 0.012079 2 8 2
0.041145 0.012032 0.012032 2 8 2
0.041095 0.011985 0.011985 2 8 2
0.041044 0.011938 0.011938 2 8 2
0.040993 0.011891 0.011891 2 8 2
0.040942 0.011845 0.011845 2 8 2
0.040891 0.011798 0.011798 2 8 2
0.040841 0.011751 0.011751 2 8 2
0.04079 0.011704 0.011704 2 8 2
0.040739 0.011657 0.011657 2 8 2
0.040688 0.011611 0.011611 2 8 2
0.040637 0.011564 0.011564 2 8 2
0.040586 0.011518 0.011518 2 8 2
0.040535 0.011471 0.011471 2 8 2
0.040485 0.011425 0.011425 2 8 2
0.040434 0.011379 0.011379 2 8 2
0.040383 0.011333 0.011333 2 8 2
0.040332 0.011286 0.011286 2 8 2
0.040281 0.01124 0.01124 2 8 2
0.040231 0.011194 0.011194 2 8 2
0.04018 0.011148 0.011148 2 8 2
0.040129 0.011103 0.011103 2 8 2
0.040079 0.011057 0.011057 2 8 2
0.040028 0.011011 0.011011 2 8 2
0.039978 0.010966 0.010966 2 8 2
0.039927 0.01092 0.01092 2 8 2
0.039877 0.010875 0.010875 2 8 2
0.039826 0.01083 0.01083 2 8 2
0.039776 0.010784 0.010784 2 8 2
0.039726 0.010739 0.010739 2 8 2
0.039675 0.010694 0.010694 2 8 2
0.039625 0.010649 0.010649 2 8 2
0.039575 0.010604 0.010604 2 8 2
0.039525 0.010559 0.010559 2 8 2
0.039475 0.010515 0.010515 2 8 2
0.039425 0.01047 0.01047 2 8 2
0.039375 0.010426 0.010426 2 8 2
0.039325 0.010381 0.010381 2 8 2
0.039275 0.010337 0.010337 2 8 2
0.039225 0.010293 0.010293 2 8 2
0.039175 0.010249 0.010249 2 8 2
0.039126 0.010205 0.010205 2 8 2
0.039076 0.010161 0.010161 2 8 2
0.039027 0.010117 0.010117 2 8 2
0.038977 0.010073 0.010073 2 8 2
0.038928 0.01003 0.01003 2 8 2
0.038878 0.0099861 0.0099861 2 8 2
0.038829 0.0099426 0.0099426 2 8 2
0.03878 0.0098993 0.0098993 2 8 2
0.038731 0.0098561 0.0098561 2 8 2
0.038682 0.0098129 0.0098129 2 8 2
0.038633 0.0097699 0.0097699 2 8 2
0.038584 0.009727 0.009727 2 8 2
0.038535 0.0096841 0.0096841 2 8 2
0.038486 0.0096414 0.0096414 2 8 2
0.038437 0.0095988 0.0095988 2 8 2
0.038389 0.0095563 0.0095563 2 8 2
0.03834 0.0095138 0.0095138 2 8 2
0.038292 0.0094715 0.0094715 2 8 2
0.038243 0.0094293 0.0094293 2 8 2
0.038195 0.0093871 0.0093871 2 8 2
0.038147 0.0093451 0.0093451 2 8 2
0.038099 0.0093032 0.0093032 2 8 2
0.038051 0.0092614 0.0092614 2 8 2
0.038003 0.0092197 0.0092197 2 8 2
0.037955 0.0091781 0.0091781 2 8 2
0.037907 0.0091366 0.0091366 2 8 2
0.037859 0.0090952 0.0090952 2 8 2
0.037812 0.0090539 0.0090539 2 8 2
0.037764 0.0090127 0.0090127 2 8 2
0.037717 0.0089716 0.0089716 2 8 2
0.03767 0.0089306 0.0089306 2 8 2
0.037622 0.0088897 0.0088897 2 8 2
0.037575 0.0088489 0.0088489 2 8 2
0.037528 0.0088083 0.0088083 2 8 2
0.037481 0.0087677 0.0087677 2 8 2
0.037434 0.0087272 0.0087272 2 8 2
0.037387 0.0086869 0.0086869 2 8 2
0.037341 0.0086466 0.0086466 2 8 2
0.037294 0.0086065 0.0086065 2 8 2
0.037248 0.0085664 0.0085664 2 8 2
0.037201 0.0085265 0.0085265 2 8 2
0.037155 0.0084867 0.0084867 2 8 2
0.037109 0.008447 0.008447 2 8 2
0.037062 0.0084073 0.0084073 2 8 2
0.037016 0.0083678 0.0083678 2 8 2
0.036971 0.0083284 0.0083284 2 8 2
0.036925 0.0082891 0.0082891 2 8 2
0.036879 0.0082499 0.0082499 2 8 2
0.036833 0.0082109 0.0082109 2 8 2
0.036788 0.0081719 0.0081719 2 8 2
0.036742 0.008133 0.008133 2 8 2
0.036697 0.0080942 0.0080942 2 8 2
0.036652 0.0080556 0.0080556 2 8 2
0.036607 0.008017 0.008017 2 8 2
0.036562 0.0079786 0.0079786 2 8 2
0.036517 0.0079402 0.0079402 2 8 2
0.036472 0.007902 0.007902 2 8 2
0.036427 0.0078639 0.0078639 2 8 2
0.036382 0.0078259 0.0078259 2 8 2
0.036338 0.0077879 0.0077879 2 8 2
0.036294 0.0077501 0.0077501 2 8 2
0.036249 0.0077124 0.0077124 2 8 2
0.036205 0.0076748 0.0076748 2 8 2
0.036161 0.0076374 0.0076374 2 8 2
0.036117 0.0076 0.0076 2 8 2
0.036073 0.0075627 0.0075627 2 8 2
0.036029 0.0075255 0.0075255 2 8 2
0.035986 0.0074885 0.0074885 2 8 2
0.035942 0.0074515 0.0074515 2 8 2
